ply
format ascii 1.0
element vertex 802
property float x
property float y
property float z
end_header
-0.23765035679224938 -0.4746651510056737 2.7402129308877896
-0.2263670260544103 -0.40998395748979355 2.7521875181938493
-0.2531191695622593 -0.6046890724426222 2.7437225426168266
-0.25384579529110496 -0.6004091608800107 2.7465923106548056
-0.25384579529110496 -0.6004091608800107 2.7465923106548056
-0.19380659748604875 -0.30812910775047286 2.7500699311904273
-0.1262604266750616 -0.22357541412333626 2.7670929133970703
0.03488385341925362 0.012000477501726513 2.691181420165009
-0.14493642097956 -0.6022701888057108 2.7754954534202163
0.05795080796610864 -0.07620228419706782 2.70234222915606
-0.12568097024426467 -0.32235280920817705 2.8329067159910712
-0.1309923886700189 -0.5719980985546059 2.801929335520095
-0.11736866259802019 -0.6627386513607392 2.7755848560722876
0.0604588410053732 -0.16867049671995976 2.7289673115474162
-0.1122916695653001 -0.37728429062563934 2.8665485165194053
-0.11830375153193476 -0.3030634193444954 2.8933194219103715
0.07161314814880582 -0.17118298820837655 2.7351379384008747
0.13033216587576577 -0.16917165207228332 2.765159497155031
-0.5607239428032462 0.19921644510025535 3.6203075673250757
0.18232311853858882 -0.0531779215259073 2.7587272066155126
0.20154604357920022 -0.023445862408028626 2.7782990458878305
0.20154604357920022 -0.023445862408028626 2.7782990458878305
-0.23659682838030616 -0.33991776814259483 2.742642688988677
-0.23659682838030616 -0.33991776814259483 2.742642688988677
-0.16281626838834554 -0.33219488558103216 2.7968267809157172
-0.05200756056807608 -0.07886745701003119 2.7214921580370603
-0.0428744474222626 0.21523227912982731 2.7354308194837023
0.08996095272943466 -0.027502296261905985 2.7137802121090253
-0.3071394303887827 -0.2764116737454054 2.744934090227358
-0.22918841126763864 -0.31918994598262646 2.7455895562955823
-0.25553731106650907 -0.5778594882435992 2.74257678018872
-0.22758351082761608 -0.43392907046532203 2.7491470221462007
-0.1646451648294807 -0.19904105718679702 2.7649096696655966
-0.1646451648294807 -0.19904105718679702 2.7649096696655966
-0.18533250909708082 -0.4829022368636261 2.780163809700439
-0.14537342619113142 -0.5709586716549817 2.7800970474478346
-0.1337396477075188 -0.6619612054111963 2.7484840580694834
-0.14491446567340388 -0.5232603429780316 2.798545198742893
0.09127745692739903 0.02759351263327305 2.7072924334289286
0.09127745692739903 0.02759351263327305 2.7072924334289286
-0.3189793753901006 -0.5721351887090813 2.701381073754416
-0.2986755554760905 -0.544676743216271 2.7120962535609503
-0.28494821051988023 -0.5467023853106873 2.7164836043892326
-0.2703729501840878 -0.36416301198045864 2.736835613030128
-0.2218698697775047 -0.3319307444033146 2.7436518804350394
-0.24967482012597964 -0.547816622369106 2.7475174345693003
-0.139751400822645 -0.10297780321331286 2.740346141161126
-0.139751400822645 -0.10297780321331286 2.740346141161126
-0.19801626392365845 -0.5448031816800231 2.77602082488649
-0.14833659484573455 -0.5388586479690458 2.7986658025803592
-0.14476393563248355 -0.3973475564891423 2.8383696729919428
0.15475364997304622 -0.11952059196055531 2.7575357921889956
-0.3706782463884233 -0.3991598192757798 2.9185662015108527
-0.2132124883191234 -0.13999401998806812 2.7162167489322147
-0.39004673147126945 -0.3168353059249273 2.754630861394636
-0.3840894173219878 -0.32373730907799897 2.7696479608932556
-0.08874736699640777 -0.06260966490495351 2.7450959896873006
-0.4647521481207585 -0.18845194989653696 3.0324721230477096
-0.4647521481207585 -0.18845194989653696 3.0324721230477096
-0.42709610926233504 -0.36244592156779865 2.8985365140559596
-0.4171133285776803 -0.2731427498086018 2.702896089993314
-0.3816081127900421 -0.3878696536297078 2.8849178648172766
-0.379069013767808 -0.3388934350077141 2.7495525312025113
-0.3543962049075019 -0.38597171894951054 2.83421903645512
-0.33897212579098235 -0.4095904738011888 2.9033318468756595
-0.3593195465642558 -0.371971273941522 2.8015152485688106
-0.3416980408003526 -0.38051310097410407 2.8135973737993165
-0.3416980408003526 -0.38051310097410407 2.8135973737993165
-0.3176199587168198 -0.37161962388417075 2.827682732198913
-0.3131668896250803 -0.3816276760206881 2.8227585107475246
-0.305080031595702 -0.09058258842185582 2.616679903496497
-0.28928206132987594 -0.1312490377877012 2.6626713267525606
-0.28597138716122633 -0.14204197848487995 2.662325978659329
-0.28597138716122633 -0.14204197848487995 2.662325978659329
-0.27429463368409684 -0.17611872653748892 2.7075224772760147
-0.2722126691399118 -0.14617203311547003 2.6744998346298883
-0.2469861573736154 -0.15668956422789918 2.6982615497155535
-0.2469861573736154 -0.15668956422789918 2.6982615497155535
-0.22611965780160972 -0.1923389291787046 2.760970029222004
-0.23726481995924065 -0.16314097646794787 2.705596447100634
-0.20772381162676395 -0.17308587189250185 2.7501149601854142
-0.21233364615064543 -0.12086684767266645 2.658508848300873
-0.19759892377065655 -0.14814956373190963 2.717153139904258
-0.1864214689455575 -0.12463228387276808 2.692840321077763
-0.1682520292243269 0.023405019081331958 2.605584271665225
-0.1485828024007216 0.0074572386084520974 2.628981903393726
-0.10963991602126223 -0.06684710418969632 2.7484521225497365
-0.11683373124709423 -0.03841562982201885 2.6958573580629475
-0.1262236940997823 -0.005343569320683293 2.646673753637049
-0.13536594839198932 0.017562404837911473 2.5952801437820834
-0.13536594839198932 0.017562404837911473 2.5952801437820834
-0.09769595898949192 -0.06045911322036073 2.7374849854249965
-0.04720034889113466 -0.08823672187530769 2.86664718491629
-0.08044438676055672 -0.04120919088898799 2.724484105867635
-0.06559804657082981 -0.059243831242187385 2.7594035827852768
-0.02934019596251092 -0.0713384358068843 2.8523325025177773
-0.05356610351939032 -0.04119638945644352 2.7425559629577507
0.002342286955764878 -0.07787118479066565 2.913960793215576
0.009976750982935887 -0.0819107387768386 2.933882320348756
-0.06589440334892065 -0.0033747546478337443 2.6723488370589474
-0.0782342722213819 0.017765304499037474 2.6242344332123535
-0.0782342722213819 0.017765304499037474 2.6242344332123535
-0.047470556356396666 -0.014725111180291493 2.7254903653003035
-0.01393533317284952 -0.05113106421352598 2.8252915625362203
-0.08410628982759977 0.03822756749306822 2.5823654555692888
0.0021329440011764156 -0.06474464246597243 2.871614849529602
-0.04115035342177968 -0.008353184872132014 2.7247412131699216
-0.054938601646007335 0.02127836159449525 2.6314467793287846
0.013427462963845624 -0.02893946251374876 2.828922101864601
0.013417912221800044 -0.023669807171379665 2.815250275435264
0.03086487847011849 -0.023585195463286433 2.8493867958170935
-0.004027627677389683 0.010065562510737421 2.731063302985285
0.04126958882413261 0.0020879842205704883 2.8433303371734557
-0.007124805444411389 0.02300736345952844 2.6968708247861004
0.46152306230640217 1.7599964494006923 7.998325891622967
-0.3667587990057262 0.32862158169280514 2.8974447401889996
-0.1472615783832412 0.01823761725543589 2.616125835222693
-0.3237501845935739 -0.5660808140328337 2.7029316789104954
-0.32303425492820986 -0.5393859388217671 2.7167955361973837
-0.31239144961504695 -0.6404199002160057 2.6908652728198685
-0.3051675176284187 -0.600406103214001 2.7040692844523293
-0.29473553274515935 -0.570293361353599 2.7134772211591556
-0.2854125824824381 -0.5436160284251974 2.721398014965613
-0.2854125824824381 -0.5436160284251974 2.721398014965613
-0.28229748803951493 -0.6467759874011272 2.701713123928737
-0.30103660627166917 -0.6631497808553644 2.709988083391194
0.05538848185054917 0.01918723442595051 2.7029100978614675
0.07495899734883048 0.05480307629109736 2.7091399607978714
-0.26707006794338245 -0.6357601946227164 2.7272959251641344
-0.24911188337082668 -0.5338521059160206 2.7460771676511793
-0.2524891052680489 -0.5961048530824503 2.7416159942191465
-0.1680528970445962 -0.29822849461691026 2.7732551987917984
-0.16121929295324977 -0.27512301957374447 2.7808353982111007
0.06745029589615549 -0.11226905534979717 2.715641606141435
-0.09447931464141526 -0.22026423831649877 2.7813245964722833
-0.09860932680726806 -0.23382038233708405 2.7877752587723914
0.09066589528086089 -0.14409962456701356 2.7340359370323397
0.1331892759382879 -0.10592856736643692 2.7398418729047096
0.17779786066364567 -0.04460274577008409 2.758541229574645
0.15769180681648778 -0.11133534577864981 2.760139284861765
0.15143141814141556 -0.13608654614401877 2.7636972226686254
0.15143141814141556 -0.13608654614401877 2.7636972226686254
-0.12657633524440218 -0.3570026835028257 2.8829498469947796
-0.07262151712680232 -0.26291653285940986 2.884464953274268
0.17322712067421975 -0.11710587621327115 2.7785353288076635
-0.05212393002606893 -0.23960546503456928 2.894560962379458
0.15535687271102383 -0.18362682483981552 2.8631834111101173
0.2006433828881056 -0.11794456832686846 2.86353359690558
0.20255472305203048 -0.10052902621901329 2.880279083249534
-0.1325958609281343 -0.21488896578707511 2.7724702950187146
-0.2737703120530114 -0.2947685926010709 2.733064142032741
-0.32165022867900905 -0.2951568450984019 2.7347040239734515
-0.29405097135332464 -0.5489428100195562 2.7031327389900897
-0.06341941786067647 0.122348087551635 3.0931799111865272
-0.3317829006319989 -0.3165198790458059 2.703496157947996
-0.24280627481181077 -0.3177660529187998 2.7151712219485433
0.062463447730467 -0.09666026025665145 2.7142473173420485
0.06414038201621261 -0.16169700156901978 2.7223062443131805
0.06439106623664459 -0.18273699164564647 2.7425027760334744
0.06439106623664459 -0.18273699164564647 2.7425027760334744
-0.002184157241237871 0.02156683075580536 2.703697017958331
-0.03555130668897903 -0.10682299981244384 2.72951733311504
-0.035743485626593845 -0.10664322186520082 2.7297617380993486
-0.14410240837563465 -0.18944189284580498 2.763114873851794
-0.14410240837563465 -0.18944189284580498 2.763114873851794
-0.21886453007668868 -0.3079820144462479 2.744433632344606
-0.22300782994630416 -0.4798139502835344 2.7392678453155144
-0.2469682824723453 -0.4553502078353698 2.7172873626260707
-0.2550817430134936 -0.47951238593041773 2.7157509048961046
-0.29026882136539167 -0.5284852664170575 2.7070575546737516
-0.29026882136539167 -0.5284852664170575 2.7070575546737516
0.021195877982201204 -0.0593500325775517 2.6943678381511234
-0.13574906844984413 -0.24805457669688435 2.7739048587158495
-0.365502388033237 -0.3318524788452274 2.7986377132670444
0.13368668376322018 -0.16587563626191956 2.767276742628728
0.12630931421821376 -0.17247391483995747 2.7678372926867962
-0.08249245972222327 0.025807360710376755 2.7317664085361795
-0.08404825930819185 0.04130969196885983 2.7308904088592336
-0.09796439289185907 -0.22022804154199122 2.789009830189482
-0.18719463834278469 -0.20161672351355778 2.7608990023373123
-0.15977085912693337 -0.52576197428598 2.766972741113465
-0.2413641952972604 0.2978653881390576 2.9154693617298277
-0.18207547891637282 -0.4749451142356159 2.7577266241732707
-0.22867157345160205 -0.1521630077955954 2.767248372240273
-0.24933717968008903 -0.3086071804978554 2.726742011728805
-0.2650113629938023 -0.31244986366896665 2.7231599017841344
-0.26568554985227677 -0.38135345073834803 2.7260355907292304
-0.28068039275861806 -0.31477974753683335 2.7229476577366745
-0.3121566443707257 -0.33568042916348667 2.7250366970935773
-0.28317473057147474 -0.5455730940451218 2.6825692484223556
-0.2087144791320838 -0.12481946667899985 2.7690339409597504
-0.2087144791320838 -0.12481946667899985 2.7690339409597504
0.22119268981628953 0.06761621808893845 2.877675804990608
0.20277376328552923 -0.10880566505380836 2.856515223620566
-0.32125058225752395 -0.5866097373570234 2.7017819950057507
-0.26346032348542897 -0.4620450696635211 2.7259606703085133
-0.24456090573085768 -0.4407710652951326 2.728432472649584
-0.19736301936661432 -0.2786313812479433 2.7684476276301813
-0.17585315411398034 -0.30237351323683936 2.763357957100756
-0.17651982252807955 -0.3219120092155177 2.7603933396827243
-0.23907212098098746 -0.36127348429674905 2.765473544353897
-0.16516655542781536 -0.311956989990668 2.7750494833025265
-0.16516655542781536 -0.311956989990668 2.7750494833025265
-0.2600542004475285 -0.5722551791308131 2.731951588504377
-0.2511959811891708 -0.5614837601558467 2.744394796794151
0.18146966030716064 -0.07066613313511128 2.7690610438563823
0.18146966030716064 -0.07066613313511128 2.7690610438563823
0.1981858660257722 -0.02095779031665162 2.782068748581596
-0.14962990312748856 -0.3314918271004573 2.7945913600183006
-0.14036529136056927 -0.33207960290821387 2.806036262525833
0.1820725457211938 -0.10118392876877079 2.7846842930475226
0.16743654820060475 -0.13266258628489755 2.786728340399899
0.18254588932381358 -0.11091137327356493 2.7905606694899148
0.17288790708305019 -0.1291843093462862 2.7949851112736086
-0.19542514706608838 -0.20898926609314802 2.8772807827991684
-0.12352005407270819 -0.3217970768734575 2.8310928801072293
-0.12558426307302017 -0.33007681610668776 2.8395313304887235
-0.1867790585660418 -0.4273063137103897 2.835065612334629
-0.14079719820588757 -0.5404584302804327 2.7941890595269236
0.21109672049526673 -0.0736199585354458 2.821286963916275
-0.1385688038819478 -0.39899153091833645 2.8334193011470763
-0.13801159712254232 -0.37329885177833216 2.848347842216408
-0.13512651823303842 -0.3852960577276959 2.8531231489469158
0.2276094279388727 0.05180153237973267 2.8687859491039496
-0.12216863145319051 -0.3356806977716539 2.875613071206338
0.20358450325138036 -0.09417564295123733 2.8536555513133695
-0.1385356040865953 -0.37307240031440486 2.879400234070241
-0.12283302257627554 -0.3427970362140334 2.8871179815272803
-0.11679551544744245 -0.27912883663495197 2.9066557761902074
-0.11864455909307806 -0.2969302970010965 2.9063281737629323
0.1595228119163793 -0.1738510411184919 2.8632825081350988
-0.12408947508953422 -0.3073550799846421 2.920553664232942
-0.11142518199280252 -0.2732860054535185 2.927591732748625
-0.1301962131805724 -0.34441326375300824 2.919086457446321
0.20320828328977658 -0.0633534287264313 2.8955131187251975
-0.1340002155592367 -0.323488486786168 2.9332324428557515
-0.20373923433548752 -0.40697499499995676 2.933892873599569
-0.20373923433548752 -0.40697499499995676 2.933892873599569
0.19197769589185212 -0.06181230144256151 2.924476929414526
0.17702862436633818 -0.11599971333289592 2.91763091800119
0.13819140783194664 -0.13950766999946895 2.9479485532484255
0.14139574488557466 -0.1279863719753728 2.955353001909251
0.16025021648560706 -0.0254548816328453 3.0029033838918804
0.13682811695891675 -0.02367517528067335 3.0350339820811536
0.09942707582393337 -0.0026927070289541203 3.080071011701902
-0.13173669276288708 -0.2978802837517719 2.8069715439996235
0.19713172416844335 -0.1166457768309585 2.8648218827421523
0.19912735076900387 -0.10022786494789704 2.882138927659509
0.22922020356558648 0.08232742597049149 2.9386236715468703
0.16730724632089747 -0.1520912587365467 2.8845414781091563
0.18612964783127411 -0.11998497375959727 2.896119207185218
-0.08122047117301276 -0.2702578896011995 2.8769621507912735
-0.11304249754051732 -0.3011854898132683 2.876560956984018
-0.13862934719793094 -0.37809970700581197 2.870240106911342
-0.13862934719793094 -0.37809970700581197 2.870240106911342
-0.11994514361405376 -0.30324488573063224 2.8921560902202192
-0.06916369324258899 -0.24314345474438456 2.912398736285602
0.1720208025257197 -0.07770222278242936 2.9534651491634074
-0.13647150668716226 -0.3609481434484569 2.8993311191370337
-0.13153672264779315 -0.3355239238600292 2.913523432859997
-0.1779586549472955 -0.4114845479784318 2.9018372925527283
-0.18797738551184326 -0.41352157524935484 2.911626049505208
-0.18402727968239335 -0.4057048357321445 2.914580638940187
-0.1439037428200417 -0.33556862568635926 2.942470395045023
-0.1994617090915826 -0.41387192731245953 2.9255132089032
-0.09425112022307655 -0.20847589478561054 2.979708339972574
-0.09425112022307655 -0.20847589478561054 2.979708339972574
-0.1460930366217679 -0.3161542312923528 2.956154108985496
-0.09989262727402083 -0.19364222654906826 2.9970328817033747
0.1317081516429318 -0.03985433706245289 3.031409761255707
-0.2737350387749069 -0.23770179799368268 3.0145702281749602
0.08098622858245448 -0.03142993424029006 3.0750690332466917
-0.13867754512358008 -0.38407075557039616 2.8648045449739636
0.189925433606741 -0.11466875340208027 2.8922811932207346
0.20226590676379894 -0.07381895062323693 2.898837533985953
0.19796683750856364 -0.08960282756539631 2.8968980544570013
0.050632528581153496 -0.15523836605809432 2.7883191750170533
0.14833136075347944 -0.13888482852443065 2.9333940158858534
0.14013998003181588 -0.1559063054362701 2.9271406272998726
0.11849547016970723 -0.17944130893376475 2.9221306813929835
0.11849547016970723 -0.17944130893376475 2.9221306813929835
0.1329449045561001 -0.1506145440866201 2.938748282958539
0.14158670412863766 -0.12717016726773941 2.953148722911778
0.13740270301250246 -0.14000293146366347 2.9474885569306473
0.12492843320121552 -0.14330789206063618 2.95598360662109
0.12201192825143907 -0.13255189070179124 2.968037215431379
0.1207699809113774 -0.09729437657355185 2.987738435713685
0.10704179464620957 -0.14013197830615176 2.9699834882732628
0.08996719702418765 -0.17401599476430188 2.9521686835414545
0.14055582467249264 -0.04093403573282843 3.0190890062576474
0.12159800205304742 -0.07568340917974624 3.0103967454569704
0.13789549691234798 -0.025545835087058003 3.0344602381676316
0.09923442526589864 -0.13062628106499768 2.987055434250639
0.09014334385330568 -0.12914203815078987 2.9912508295159412
0.09836595818725702 -0.08649032591830053 3.016617465007403
0.09836595818725702 -0.08649032591830053 3.016617465007403
0.09893518102466539 -0.0871066949637197 3.0177994018916277
0.12139473873188787 -0.02867336400781707 3.0475744780190728
0.07893068927819957 -0.12759159381730298 2.999332157885258
0.08302706361120905 -0.11184171356282416 3.008548865873422
0.08302706361120905 -0.11184171356282416 3.008548865873422
0.07015762170359835 -0.1593469993243924 2.9897483782910528
0.12546654497534535 -0.012601950370928946 3.0600901867199815
0.08487451426097999 -0.10251991147339419 3.0158489853997574
0.06141224270775932 -0.14825367069438944 2.9918174222765965
0.07627494201897717 -0.09853167870898273 3.027768862145049
0.07967498267932134 -0.08247978315067223 3.0407837667697923
0.0947878638923946 -0.035131114409959564 3.061932946534753
-0.04703436158908459 -0.20448078668746641 2.9408555445501006
0.10250157457707691 -0.005678329609088169 3.080192178382954
0.07885664272419768 -0.073058213487685 3.0495477302302905
0.09837520544620519 -0.01495227844941156 3.0772661621761097
0.06674569613070248 -0.09645550320259616 3.038052087793377
-0.054637590186046574 -0.20994972294560355 2.943365240653392
0.04389727109344845 -0.12272462078328085 3.0230124230884847
0.028242483589859927 -0.13764769894165144 3.015016644379397
0.0321018130567466 -0.12685178624696886 3.0256612721534237
-0.06851973406136361 -0.21952496884508862 2.948333315846248
0.03663162562032221 -0.11289143767697091 3.036697878909993
0.013488030267073129 -0.14191943858878373 3.017870833626818
-0.11249795377564738 -0.2828421109446969 2.910101322561854
-0.14114597677823867 -0.3724593419717647 2.877486809043417
-0.07569332018851872 -0.2198719472182477 2.9544927849110887
0.06137415230510343 -0.04882969774696739 3.0791734426291364
0.06450379236004651 -0.029857743859484805 3.095283562346618
-0.11734645950310615 -0.2706061027860471 2.931911300779181
0.02757787696335902 -0.08833791268555924 3.061301215541652
-0.08523452533323964 -0.21844610060170308 2.964520377183127
-0.12366916900944663 -0.30789346490204206 2.9202920490013624
0.06393500536402374 -0.023700530699053327 3.1045915871109324
-0.07847517511627405 -0.19405907954695464 2.9845044661213143
-0.10724924161421039 -0.2451648854862594 2.9677124921649227
-0.1353140134252662 -0.3237487507576083 2.9323553933783555
-0.14784430244447685 -0.3625258590463673 2.9153379899420293
-0.08556328962870723 -0.1721905909474655 3.0077663414516906
-0.10365307028352032 -0.21799610350938978 2.9864134535613953
-0.11229516868602801 -0.23069158826246564 2.9819087383769602
-0.13109401957130057 -0.2606689341883291 2.9641862006079487
-0.0867391964979371 -0.16030947602367943 3.018068757783309
-0.1598866072342888 -0.3683854837462798 2.9294610517174426
-0.12354629561104026 -0.23254348418568677 2.9899318739854603
-0.1572708351798219 -0.35283417138659157 2.941329674276097
-0.12092309340291198 -0.220866135045615 2.999016654318854
-0.12500691722396376 -0.22906282155016336 2.9967348236017215
-0.18810704018805682 -0.39796654806429177 2.918453075082206
-0.1018798860740731 -0.16738700113805863 3.0278793651902403
-0.20265755433070987 -0.4418652241798407 2.902683218529438
-0.17936304307236614 -0.3788227483027971 2.9349999615064233
-0.19862301363440893 -0.42212858854395024 2.9146569717467212
-0.19862301363440893 -0.42212858854395024 2.9146569717467212
-0.13535839678687936 -0.2174018487941573 3.0088102734954574
-0.1122867844264607 -0.16821691319610305 3.0353367805908156
-0.20922723588241776 -0.4295641491882382 2.916365020160378
-0.19718738188752746 -0.3906620209307907 2.935236973728587
-0.19718738188752746 -0.3906620209307907 2.935236973728587
-0.21047072413972712 -0.42591279164500767 2.923768562317927
-0.2067362755895916 -0.40662331046266315 2.933019498423095
-0.2067362755895916 -0.40662331046266315 2.933019498423095
-0.11554589434232951 -0.1447825414148207 3.0528522022300595
-0.11554589434232951 -0.1447825414148207 3.0528522022300595
-0.13410504663071857 -0.17733362215295245 3.040632735926857
-0.17569647655157392 -0.3044943902666761 2.990298113942454
-0.1910610054874347 -0.3397610817479513 2.973649610646045
-0.13366097696225446 -0.1675550641460784 3.0504613974603116
-0.2199240817414166 -0.4191423394732765 2.9398146182376967
-0.21847496906313424 -0.4115401295107878 2.9437103991339195
-0.20884703081268025 -0.34949706383480655 2.967515504931441
-0.19355381109480954 -0.33424792943015896 2.9805023819951377
-0.19355381109480954 -0.33424792943015896 2.9805023819951377
-0.2192814184029519 -0.3797358339512377 2.956606370415884
-0.1934143123943339 -0.30334245336804466 2.9959099268746954
-0.20012986998685633 -0.3311034691575005 2.986544208680828
-0.20012986998685633 -0.3311034691575005 2.986544208680828
-0.20664944436743532 -0.3222425620307912 2.988539632211527
-0.23098719757868638 -0.3989600135036563 2.964517484617706
-0.34246235111024087 -0.2964979187889725 2.9881159307136054
0.20609116770835179 -0.06271156772402169 2.8922112411692336
0.1890422883877664 -0.11298633287307598 2.891965723996473
0.17120697653754574 -0.07709431516804324 2.952651645716983
0.17120697653754574 -0.07709431516804324 2.952651645716983
0.15693079475548197 -0.07814876465929263 2.9742654207497865
0.15534480943889742 -0.0770987108541241 2.9749011941741164
0.1316715647294324 -0.0404690021347686 3.0319047000690977
0.11832999419401029 -0.09082220921581417 3.0027832236777248
0.11488012084905941 -0.04987755902324095 3.037187352951864
0.10031950085799186 -0.17538516448399977 2.9491393574578395
0.09748845955035715 -0.15699746616632015 2.967008960094814
0.10773350911950486 0.11610940376054397 3.0809042105662074
0.0905787122957328 -0.13728841194938188 2.989175805211276
0.09703523181495075 -0.04270175081748755 3.0485642133340622
0.07448164940835483 -0.19398298107796416 2.9409372992741063
0.07448164940835483 -0.19398298107796416 2.9409372992741063
0.07661495171040116 -0.1392040586072406 2.9931324244822957
0.0676244474551206 -0.19045633688002792 2.950335876999382
0.0676244474551206 -0.19045633688002792 2.950335876999382
0.0818934130330511 -0.033751947790583034 3.0759592827112314
0.05532167132203765 -0.17608126409385624 2.962105898261696
0.061888270235840745 -0.10783727091225644 3.032033021411404
0.061888270235840745 -0.10783727091225644 3.032033021411404
0.06526091415254798 -0.05018172426473789 3.0687033354337148
0.05705299059919679 -0.08663164296020087 3.051344539972828
0.06222186912670698 -0.04402495534454921 3.083085444788302
0.039201397354429096 -0.13783230321717083 3.0140826322241514
0.0435671030925005 -0.057238021297475884 3.0828793127422016
0.03986921033213912 -0.08200144274971481 3.062182823453829
0.03587064068387256 -0.09376448416237902 3.05635374759944
0.028337014092199058 -0.11268719982366808 3.0421385614814227
0.01295834134216968 -0.19001401733102086 2.9602016670912397
0.01295834134216968 -0.19001401733102086 2.9602016670912397
0.03509540097788355 -0.03813157206283936 3.109437955059429
0.01840087109578226 -0.12714048979335998 3.026753864309922
0.030348297483553513 -0.052160432919779634 3.101688499023181
0.005283350457961108 -0.16902678090696166 2.9888526969486247
-0.007748915797891227 -0.1505145289899481 3.008710917381823
0.004981669061925692 -0.07235293473825326 3.0799974136482717
0.007941244628760356 -0.05266561980462033 3.111616792394927
-0.01893613972651248 -0.16245799730994728 2.9939957989895802
-0.013657955911224517 -0.13395393847715767 3.0238460005261225
-0.014975183523971085 -0.12778187005278424 3.0346741718429935
0.0006300219704205338 -0.027839426532075 3.129799524306826
-0.0006596922315046297 -0.03508395097589178 3.1262506644433503
-0.024955775775156012 -0.15799182760296088 2.9975349890570597
-0.0105324535979654 -0.08099416097460056 3.0775683235470352
-0.0073684630260118745 -0.05540022283219808 3.1106997714228677
-0.012637512925802714 -0.07564590513551304 3.084674821746559
-0.03230305978718625 -0.14706160114936387 3.0087927800249625
-0.010670003282526022 -0.03762849400570877 3.1244090769389894
-0.029913111293960952 -0.11642969973667186 3.044989126856969
-0.029844239005723045 -0.10881134571512042 3.057285776986457
-0.038367646992150665 -0.14264306200855068 3.0141476551897757
-0.029585007304466907 -0.09303380016699729 3.0630589564394097
-0.03810364521575806 -0.13235180209559283 3.02346818682633
-0.06739969827414156 -0.2450781381591642 2.9121230397243103
-0.027256848661562742 -0.04359271446691652 3.123885972807029
-0.05494192540077685 -0.16818996202127262 2.993799696314111
-0.06247697945713709 -0.19797342683993138 2.9652448749721834
-0.0499462238220134 -0.11669724909233564 3.0420534139683486
-0.03552367980462412 -0.035045474787013774 3.126263602916894
-0.05717160191499964 -0.13881448646448843 3.0233486590450505
-0.04626102291831192 -0.06169324091133463 3.1095598570007494
-0.0572829737341217 -0.08381366468244016 3.064686808437627
-0.0572829737341217 -0.08381366468244016 3.064686808437627
-0.07827765526533309 -0.20309354320560452 2.9726591863708545
-0.10181606377369086 -0.27927986385832 2.8628701518247337
-0.06749033333577587 -0.12834927168214144 3.0365565736207754
-0.05243841702136459 -0.04921895690893979 3.118014117253039
-0.09355690664899645 -0.2470824103849097 2.947292612206825
-0.0925675113128684 -0.21090471441709555 2.979485159745578
-0.11996742005777293 -0.31772983028104335 2.881706308817849
-0.09734226330343616 -0.19594968021454715 2.9975105965901587
-0.10996670995436164 -0.25993263189770466 2.9494735861361927
-0.10996670995436164 -0.25993263189770466 2.9494735861361927
-0.11057322421778744 -0.25271715354359825 2.9572745116224013
-0.10199774487551262 -0.18568223594915909 3.0090318180235283
-0.1374623260290865 -0.3788943153554189 2.8448921597153296
-0.12964931739367389 -0.6121840628571583 2.8504761621265446
-0.11400105023527346 -0.24073373715725652 2.9701747547373154
-0.11400105023527346 -0.24073373715725652 2.9701747547373154
-0.12566088870945075 -0.3209294814332037 2.915674165451042
-0.15577988969886733 -0.6651564725521256 2.7697225286872764
-0.15577988969886733 -0.6651564725521256 2.7697225286872764
-0.1359116812495298 -0.3613534096427394 2.9003221804329913
-0.11638394953744512 -0.19940530274796364 3.0093040448475397
-0.14401923550085888 -0.3640896940944004 2.910143732065337
-0.13361394879100622 -0.24886135376383814 2.9709290053501416
-0.11649725380396098 0.10635280694066566 3.117460486077035
-0.14397685052434353 -0.3355157196274932 2.94239759676194
-0.14557383738087437 -0.3173682264221331 2.9564160523325596
-0.14557383738087437 -0.3173682264221331 2.9564160523325596
-0.16317731527071988 -0.4836572529602786 2.8770200272632116
-0.15014033925872294 -0.24940584033642396 2.980763886764611
-0.14367926171964726 -0.1847739298208144 3.025471570148967
-0.14367926171964726 -0.1847739298208144 3.025471570148967
-0.14574476751049098 -0.1633255342220355 3.0514949513031864
-0.15944220106207235 -0.24283511943725639 2.989620423000118
-0.1795675182796654 -0.4110607973406529 2.9023997585815553
-0.18625912944735606 -0.4305926374831117 2.895840441835827
-0.1586651604629728 -0.1640775327277525 3.0532928848670253
-0.18595563933804674 -0.40439596673855327 2.914679338601619
-0.17274448292340688 -0.22836246532138949 3.0019269849462105
-0.1911438928562313 -0.4128076396149583 2.9118845525596107
-0.1765443217885089 -0.21866978325650552 3.0112213167975854
-0.20043801769308572 -0.4488000979263101 2.895486092651137
-0.1731855043368195 -0.1735437929627709 3.0454233576920586
-0.17305117582868212 -0.1630463345066492 3.054261551222893
-0.17282413923184586 -0.1107167873852131 3.0771508771057094
-0.1969681347728182 -0.37530446756632513 2.944249656124643
-0.1969681347728182 -0.37530446756632513 2.944249656124643
-0.2014301169987856 -0.4130219707424783 2.9275711933082587
-0.2043200204242994 -0.398992561872587 2.938396616451059
-0.20178902254941908 -0.34249867872694045 2.9625400541632847
-0.19689020377470504 -0.3134713582139587 2.9926871101706927
-0.19234976301840673 -0.182832660646173 3.0388429358222444
-0.20965073298667541 -0.36536437578413505 2.9570313666035752
-0.2141176142575029 -0.4224665075031285 2.9328242105287403
-0.19399275818706987 -0.12703774408463248 3.071035853754477
-0.24666152483389583 -0.5943210729527445 2.802017719815378
-0.19875045558667734 -0.10079645930900306 3.081814425032012
-0.2042805763869934 -0.15042052120259738 3.0595667414853644
-0.2198708489280329 -0.3184053274854669 2.992213033504595
-0.23813866235700792 -0.44638234115620223 2.9102914314973125
-0.23806486862801426 -0.3016107530238586 3.0096283461268185
-0.24694910930745215 -0.4061058453620064 2.9656865299207578
-0.26379793942106244 -0.44030494740804593 2.9351996456767906
-0.2672521078163805 -0.371304078051322 2.9568689795406273
-0.264138670501931 -0.3510961850168933 2.9741216172627527
-0.32455669054282504 -0.3194872827670045 3.009120235886473
-0.32559147270046657 -0.3074008730535583 3.0229742743100894
-0.32559147270046657 -0.3074008730535583 3.0229742743100894
-0.3499891754077433 -0.3302361276861503 3.0067100803688462
-0.38083287311256336 -0.294807278616754 3.0079575410616552
0.12405131860962351 -0.06095233582263296 3.02133716928641
0.05406463951896203 -0.13893986552269524 3.0009172341334454
0.05406463951896203 -0.13893986552269524 3.0009172341334454
0.028947053312291707 -0.07503251923768377 3.065407138844778
-0.18663056968400676 -0.32352000610222653 2.985214310817492
-0.23710924444659562 -0.4104840919273347 2.961418217557447
0.21087131814365243 -0.026497254728238644 2.8922389012559644
0.20148916627429603 -0.060552947867133985 2.8928027691527545
0.15725723082555162 -0.15964479309353563 2.8645124372124298
0.15332465239175155 -0.1709648297495804 2.8592944693541016
0.17099493791353307 -0.11316514905366641 2.9160747346294813
0.14873154062958072 -0.12137005182203892 2.9441988190927493
0.1284731344442985 -0.124176405362346 2.9655369131218245
0.07902524608477568 -0.20117908870178872 2.9165413838470555
0.07902524608477568 -0.20117908870178872 2.9165413838470555
0.11661135957927957 -0.10929421460614794 2.9846385674722216
0.055994716206347474 -0.1860144182015774 2.9555767381738205
0.1169190533448903 -0.05096673090795169 3.03921385400781
0.10898432786079715 0.11735203533031138 3.091923545861828
0.11460752622682775 -0.011709557335283014 3.0686600984600063
-0.07248437806617565 -0.24204784988184214 2.923132613950917
0.0037527149203554957 -0.16951134650535554 2.9861772181441677
-0.11782546515255189 -0.33338430757993615 2.875941239002583
-0.0837346953994437 -0.2604622503568153 2.9148198529001346
-0.09250612389541005 -0.26816363573033286 2.90908909079573
0.061442075770484154 -0.0971235769024524 3.044668011115809
0.061442075770484154 -0.0971235769024524 3.044668011115809
-0.14568350646984307 -0.38061284630704273 2.8545311838780787
0.03995026618456125 -0.0807467104312799 3.059435391778251
-0.031236908345920265 -0.15734314573642558 3.001636248102142
0.03719529112772107 -0.09653194592142332 3.056572451612601
-0.07696027841155591 -0.2022866499215155 2.9743191097849015
-0.0766506375036241 -0.17694601212341604 2.987265591725104
-0.012554144402849127 -0.13006076067604108 3.035842867977595
-0.11018944658403612 -0.25168221908413574 2.958385890538843
-0.11018944658403612 -0.25168221908413574 2.958385890538843
-0.14229493890090578 -0.34497759504974634 2.9193465833318766
-0.14229493890090578 -0.34497759504974634 2.9193465833318766
-0.12583027476322164 -0.26713269241458026 2.9492823416265996
-0.06554125283527341 -0.15435486819973052 3.0157325494020695
-0.18079297577651024 -0.43598245413326403 2.8860980762247075
-0.14127188630728726 -0.2938460505073837 2.95061729470958
-0.1609283410880332 -0.36327964475448493 2.92318291740209
-0.06378824244703298 -0.12896939530703025 3.0400459468117194
0.017204838396184693 -0.0570850472316558 3.1044087320729603
0.017204838396184693 -0.0570850472316558 3.1044087320729603
-0.1567730179230754 -0.3607974147484732 2.932641652681879
-0.20210654529293662 -0.44892223307931645 2.893029482571022
-0.20210654529293662 -0.44892223307931645 2.893029482571022
-0.16303358385240418 -0.37307604684103923 2.941595822451941
-0.00512895887704852 -0.05546013931775646 3.112271524201985
-0.14019891827184802 -0.23929691673727269 2.998041529008902
-0.01669477029402906 -0.05726705793554058 3.1144003577560775
-0.005827140052678316 -0.0393279378366335 3.1270086595743316
-0.17617353010884476 -0.3466629422294926 2.963280813486847
-0.18339497363066978 -0.3304567557446236 2.9777810710454764
-0.22870468568866034 -0.433527346821115 2.9355191760451604
-0.1413327086602184 -0.16579478606095288 3.0560218812304876
-0.1413327086602184 -0.16579478606095288 3.0560218812304876
-0.19782637756552662 -0.3148682811337737 2.9925173053632492
-0.23928353913034606 -0.39443935675589176 2.9721367081172576
-0.2612708379292748 -0.35254171083636354 2.978828989665351
-0.3128843532197368 -0.35970351399011996 2.997309695390405
0.1996494697736598 -0.11787977660674175 2.871709642951405
0.19668513911946692 -0.06326867107870696 2.9296142846878035
0.1689690684591093 -0.15308933163053412 2.890165536656338
0.13375868316420036 -0.06869460103671066 3.0043515683996573
0.11193858561839129 -0.07824773431174635 3.017298631863545
0.06237892742940163 -0.16642843993499856 2.9737187911045484
0.07587163574099935 -0.11059815891153249 3.015858786916671
0.07587163574099935 -0.11059815891153249 3.015858786916671
-0.07828532525193602 -0.2710947160849814 2.881188339484145
-0.08666646803400618 -0.2557648527523235 2.9258218173784654
-0.11593062032237839 -0.3043740301678169 2.8943269561431495
-0.10361300018401796 -0.2698643442725477 2.9276759546676674
-0.12949359019894208 -0.6138410084623369 2.8300576669188753
-0.05646657137932543 -0.146692524678832 3.0159529119235216
-0.08402206914936504 -0.2041065141309752 2.9779225022788682
-0.08402206914936504 -0.2041065141309752 2.9779225022788682
-0.13376595418504825 -0.34846465337972526 2.9101777739851316
-0.13376595418504825 -0.34846465337972526 2.9101777739851316
-0.1689817328578419 -0.40422669708989933 2.8966820986320885
-0.18218377202799133 -0.414548527890152 2.8850740971666604
-0.13172044254397167 -0.24647437152372126 2.9759008922852144
-0.1629831924194307 -0.3244620995868795 2.966044266023645
-0.17479473541645132 -0.35192623151003993 2.9570677471341065
-0.18062762710315838 -0.35684657140745435 2.951986429646036
-0.19793236115546015 -0.3815956181651659 2.937444033639363
-0.2237829251226552 -0.44430852054654774 2.903365312472619
-0.14051350362988277 -0.14889554302019503 3.0599646219381516
-0.14051350362988277 -0.14889554302019503 3.0599646219381516
-0.23360722911794404 -0.44218582986143284 2.927189562870949
-0.17963233027333336 -0.15246212264756878 3.0624081156946024
-0.21439825221309208 -0.29612691418718334 3.0054457299874775
-0.2809752826749662 -0.4101006163691713 2.9806812940480842
-0.2809752826749662 -0.4101006163691713 2.9806812940480842
-0.2860635837711754 -0.23224204509068605 3.02457922106169
0.15707821872418104 -0.1421493267734395 2.923498877384383
0.14878011838923128 -0.13970424307720175 2.9351785200963234
0.14129727539340423 -0.15661308545210828 2.930117827340901
0.14213261402479702 -0.12770646858788065 2.9550005440013956
0.14183332835561618 -0.1273090410068908 2.954699079654016
0.13783223484752846 -0.14006204448827925 2.9489657484372676
0.1335917105145298 -0.15092525654064967 2.9403388591877833
0.1260452649832027 -0.14363907005276613 2.958152422158013
0.13715835026844775 -0.025746553534556932 3.0337074466917406
0.12198438292049421 -0.075816014070821 3.010718356495548
0.12445231701800867 -0.012258838381219465 3.057206812445152
0.12445231701800867 -0.012258838381219465 3.057206812445152
0.12445231701800867 -0.012258838381219465 3.057206812445152
0.12113887725404068 -0.029070864606156058 3.0471147563802505
0.1082634403351824 -0.1404068245251657 2.9717845239282012
0.1082634403351824 -0.1404068245251657 2.9717845239282012
0.10121168401860925 -0.10123000457915021 3.0042483711645604
0.09041048430570651 -0.1281890540017417 2.991554619559832
0.10240626956817932 -0.006104056811912727 3.0789724898622484
0.05943264391890947 -0.17251592686400669 2.8084545153168863
0.09852455712453476 -0.014672670763015493 3.0761915395403503
0.09415175019191155 -0.035062139742285656 3.06054019269071
0.08521694173906236 -0.11232734364988385 3.0107346872968392
0.07979630257921734 -0.12740606486474323 2.9997257516044162
0.0803551376935672 -0.08254237328707006 3.0406663082549144
0.07670028442289892 -0.09804620646694451 3.0272104113965277
0.062406800573325476 -0.14867243838832525 2.993240055986773
0.06172856911342334 -0.04869016951007498 3.0777241664949564
0.06428914767364388 -0.02961890833962998 3.093577465660911
0.06336511142141979 -0.02345304501876419 3.102339486497993
0.04489741353838602 -0.12316689730352945 3.023577191957889
0.05221976627767821 -0.05796003496635591 3.0738573583444557
0.033268653417275564 -0.12700902058076693 3.0263546235591443
0.03635774856417282 -0.1028426588157226 3.045917318912406
0.028433996744725215 -0.1381913117018448 3.015650755818286
0.028090396430028274 -0.08783545641024247 3.060573620499589
0.028090396430028274 -0.08783545641024247 3.060573620499589
0.026366298765752815 -0.026540773289057653 3.1195664104827956
-0.00925572858311337 -0.08412269171852894 3.066069355184679
-0.06823647527121757 -0.22012275257422906 2.948932796533733
-0.07594290721219545 -0.22026503237580902 2.954295853038652
-0.07594290721219545 -0.22026503237580902 2.954295853038652
-0.07908032432736024 -0.19409512800890896 2.983886994549691
-0.08672799657651262 -0.21890448958137734 2.9623406959712493
-0.08701353872058104 -0.16058461224124024 3.0172161572419665
-0.10449038521919958 -0.2177854300508922 2.985194682800794
-0.1085196962436624 -0.24496575086490374 2.9663933747898494
-0.09612740589441654 -0.14637453638971434 3.036680781797762
-0.11800094973997714 -0.27075006415704284 2.9313401373635624
-0.12952773741212537 -0.3569692600882916 2.8832783557635313
-0.10389211702412282 -0.16682660767331414 3.0251015362669755
-0.10389211702412282 -0.16682660767331414 3.0251015362669755
-0.11265634983554776 -0.2306231632118344 2.981452929564745
-0.11312864383343668 -0.16831914624251107 3.0337822532112457
-0.1320259575642149 -0.26059231496442636 2.9629062914550066
-0.12609607106811288 -0.22783563962624334 2.995451293615106
-0.11771831110805743 -0.14368470910700082 3.049209460149381
-0.13017852073417593 -0.19416684075170657 3.022035100259276
-0.1568844666782628 -0.37705677371591106 2.905173551917352
-0.13594114861360862 -0.17673590196533867 3.037944620094401
-0.15412837386375602 -0.353335997198503 2.944672133610413
-0.1801648587096706 -0.37711286550664713 2.9338072204475525
-0.1875400825146088 -0.39739354634176927 2.918878671139101
-0.17687105826530722 -0.30332655826992866 2.9887529255376584
-0.19914970726547418 -0.4214943862824892 2.91511433980858
-0.19914970726547418 -0.4214943862824892 2.91511433980858
-0.19749055175595748 -0.38954704105994625 2.9346373916278794
-0.19749055175595748 -0.38954704105994625 2.9346373916278794
-0.20690718573786757 -0.4409680127099142 2.900340958510763
-0.20690718573786757 -0.4409680127099142 2.900340958510763
-0.20800624153558303 -0.349061334918192 2.968371326383299
-0.20800624153558303 -0.349061334918192 2.968371326383299
-0.20686757465637448 -0.32144237994091696 2.9880609747131035
-0.2180899622341757 -0.41086978272940605 2.943956421628121
-0.22002550404624066 -0.4181514777388804 2.9396543729723024
-0.21447239958011521 -0.33764207892138826 2.9789008480818944
-0.21999873311813933 -0.37892144205857325 2.956146350212229
-0.12049808913079114 -0.29317283426354257 2.9119207620368246
-0.11376320137175992 -0.2414372542995707 2.97373515235767
-0.17373340711055107 -0.4027451970392086 2.9017452851440435
0.09952090867273855 -0.17557659956745608 2.9479708453873483
0.08586641778887036 -0.10363390906987405 3.017212099971147
0.07615233857086355 -0.14078345741792 2.993220542610594
0.07864098621551548 -0.07362046748906674 3.049027347462548
0.0689753079708949 -0.09869325288921836 3.0397293104543017
0.05483533046248545 -0.1398556237712326 3.0025987726521333
0.05926391119692191 -0.08904483083597266 3.05211172899367
0.03913319257290078 -0.13785820325221587 3.011864800033924
0.04481112262204025 -0.0576698023500499 3.080964229821863
0.04481112262204025 -0.0576698023500499 3.080964229821863
0.019175138506331364 -0.12796566171485566 3.027598854759012
-0.005886025431833598 -0.15131395926214497 3.0103351159791596
-0.024758685352841175 -0.15644378147533594 2.997873823748056
0.0025395394412114857 -0.02915642766009315 3.1291207991482217
-0.012528540941515334 -0.07498244955728492 3.082446172332735
-0.05777455249268332 -0.20777525808839284 2.942064880095811
-0.10534166248057598 -0.27844349012543596 2.8996136270024473
-0.09544216754596742 -0.24365999548489817 2.9461182091035476
-0.09431338383619543 -0.20826355320881126 2.979112331856804
-0.10300976426438951 -0.18440480529565292 3.008760311062592
-0.14167372325920743 -0.37062899235680585 2.885811551439181
-0.11773258843189637 -0.19791777893608523 3.008213621710713
-0.11773258843189637 -0.19791777893608523 3.008213621710713
-0.12567662948391484 -0.2308416067738107 2.987342239819241
-0.14532555057537988 -0.3618361873120751 2.9091082660844187
-0.14422892373007407 -0.3355370905001645 2.942132077462728
-0.14422892373007407 -0.3355370905001645 2.942132077462728
-0.1453821521432632 -0.3169866318821808 2.9559788077902796
-0.13672053347642518 -0.21668117762205333 3.0070079265466596
-0.1526851445615973 -0.3607706902354835 2.92344049406257
-0.14296203860586967 -0.18522129983421926 3.0295116425829587
-0.15956404604678198 -0.16316365779999062 3.0530559307837772
-0.2023060778667585 -0.41236893435042316 2.924962247950789
-0.20835640833083321 -0.4259876188947587 2.925492438691701
-0.20835640833083321 -0.4259876188947587 2.925492438691701
-0.2119560297490621 -0.42195905271142553 2.9325495367450807
-0.2378308609432634 -0.30271503515512316 3.0093990316064545
-0.33302726381576486 -0.22127351387956556 3.0086284251272435
0.22736883534915403 0.07671549469407203 2.8556898297846054
0.10003512465858923 -0.021953431001406284 3.0694825656719944
0.05787728859076377 -0.1861475970723471 2.9584221853242
0.06364976218411464 -0.11448717938243523 3.024396665271037
0.059712416609738056 -0.10403482589095144 3.0388390750905683
0.06100955996971991 -0.09659146252232227 3.0447973557837487
0.06098299957620544 -0.0583861103872096 3.0697993529000396
-0.0008656128324028128 -0.13390778815915674 3.0286260642287948
-0.0003572034014402633 -0.06373610782315943 3.0971509716653274
-0.0035402628288083784 -0.04435585206293665 3.1178544681244755
-0.06773992764944524 -0.22540755763881812 2.935308314579133
-0.14360129375780553 -0.2375087053935853 2.994373476569962
-0.1986590055937752 -0.15534885346331148 3.059009128731959
-0.23067500838991364 -0.307999611573177 3.0076456916736256
0.22882362985096694 0.06501881295610415 2.857795305552476
0.13378495836178034 -0.18147454623747752 2.9094142249637125
0.03684109017208065 -0.18254445080360399 2.9667208002178413
0.012816542291930239 -0.13859630689856833 3.0144956371069718
-0.0011719876487105386 -0.1825497378760887 2.973509267642358
-0.025469758778243236 -0.20042127037889948 2.9502416333008954
-0.0338081536278094 -0.15843706119082954 3.0008042759408435
-0.0338081536278094 -0.15843706119082954 3.0008042759408435
-0.04119617834563172 -0.15576561889131688 3.000136204600549
-0.07214571127808632 -0.24571303651716211 2.924986743425033
-0.05563072621376489 -0.1458704074567096 3.016771023075139
-0.06913993923201503 -0.15492185662676994 3.0126885209750176
-0.08653270573182355 -0.17321033258607016 3.0070858602445676
-0.1090248700002672 -0.14436595047999945 3.0459134148944083
-0.14783203265697537 -0.3630238300328394 2.91717426233123
-0.14783203265697537 -0.3630238300328394 2.91717426233123
-0.13653110442209662 -0.166380553098165 3.0453720880731208
-0.1848174167820759 -0.3285745909612788 2.9749236695696606
-0.1904081426833332 -0.33742205192699104 2.97112938714144
-0.1954115098015714 -0.3474143721698324 2.962780073385944
-0.20203687358035596 -0.32606050100217726 2.9805645188090892
-0.2444839026411851 -0.6147980131055626 2.7936621281155314
-0.2444839026411851 -0.6147980131055626 2.7936621281155314
-0.22967347932142068 -0.4752087260890463 2.8745021429303237
-0.21076647080716024 -0.1983275367789182 3.026037242696374
-0.25373584841552216 -0.6355396627418118 2.7840134808066406
-0.2361476169429139 -0.44211763120748815 2.925394017745874
-0.24830859904980043 -0.4142759802663908 2.962404871802342
0.12199928421884579 -0.07628760580003478 3.0116243292352816
0.10150843285595161 -0.10131866542238797 3.005837422773742
0.10183822664928704 -0.08640434150689509 3.0172292026117895
0.07448498318052822 -0.19186744788048207 2.940459153177374
0.09511084412847952 -0.03597975221041678 3.061918719584722
0.06591423700377874 -0.18321353731845635 2.9591130154983727
0.062499393999523735 -0.1483931688184091 2.9932100096730516
0.06560961959136785 -0.03029058403834319 3.092816300891762
0.06507291338753154 -0.02228998197679036 3.101056104612149
0.03410913723511179 -0.12412208565028679 3.0245565919687487
0.04035321699643861 -0.08082993261362134 3.059462546062761
0.03633221622526886 -0.09420720727760672 3.0550161812313474
0.005300304619739973 -0.16745473717741752 2.9872947696433956
-0.0006996945162695117 -0.1346189109564262 3.022627036179354
-0.019154600188749593 -0.1917336361590796 2.9578162945907813
0.005423051134400465 -0.07280614241925897 3.0792532404037627
-0.028522944450232842 -0.11567254655527931 3.0458312880685043
-0.038449515958380684 -0.1447677289056359 3.0164471373758968
-0.03727072487437205 -0.13218398072118345 3.0267912707891593
-0.05605657079062464 -0.16801822883806755 2.9934354089608894
-0.04889032163039354 -0.11704743962947592 3.0438315782181165
-0.057722101794942866 -0.13699955128905697 3.0223234032416224
-0.03435780633465817 -0.03445839710077135 3.124739646342749
-0.07749266903950193 -0.2230094709768111 2.9565351675832905
-0.07902294898012754 -0.2045379324689473 2.975084799594832
-0.06806627337182329 -0.12801481319555982 3.036155289327549
-0.06524675807422937 -0.09595237255927311 3.0574166430333944
-0.08793178748934911 -0.1608216349798754 3.0165238759485264
-0.11063487699343648 -0.2606084088189503 2.950848041346204
-0.11063487699343648 -0.2606084088189503 2.950848041346204
-0.11095648946739389 -0.2536559671334807 2.9594484945159976
-0.10443119307812321 -0.16605895733657575 3.023034819889029
-0.1542396587006468 -0.6647325211940467 2.773621874904972
-0.1542396587006468 -0.6647325211940467 2.773621874904972
