ply
format ascii 1.0
element vertex 800
property float x
property float y
property float z
end_header
-0.28167999256731785 -0.15266555573068175 1.4043773256479792
-0.2811639091833931 -0.16185091217427527 1.40570876328731
-0.25321868429192523 -0.11539205270469843 1.408187007168976
-0.2938265454116053 -0.19843264785082923 1.4019373126295167
-0.29343900248404464 -0.20693544018700094 1.4025837362404365
-0.29343900248404464 -0.20693544018700094 1.4025837362404365
-0.3052239582098293 -0.2625828677357529 1.3994936393860182
-0.30219601930405804 -0.2469748272301298 1.4027428877810646
-0.24033381715991747 -0.12245380507785474 1.4161130384287024
-0.2913442266496123 -0.2108095077437089 1.4148016165905333
-0.29729106658951593 -0.25776764906272076 1.4064606126369983
-0.29604151334884904 -0.26257887346717934 1.4099315674878732
-0.2957450058980197 -0.22780957456286247 1.420377948889692
-0.29417578877089656 -0.2644134275298782 1.4193215619196047
-0.2179280311960077 -0.15907643478021471 1.4416839654449995
-0.3147445668601312 -0.2652145341910582 1.3862336024460704
-0.2814482864074547 -0.18308947762476563 1.4089513490571817
-0.28943540746960233 -0.20497110860716783 1.4144638740270818
-0.29118409748069346 -0.2948795057660416 1.4084534419813173
-0.293097847830533 -0.22265350223625943 1.4310627662454478
-0.2964167596201739 -0.20431523081278963 1.4367063606426709
-0.23452144197483812 -0.17080457938282126 1.426550612189548
-0.350553666556027 -0.2252474869140786 1.3945820365956312
-0.35538506640431644 -0.19502932514938853 1.3953390009873021
-0.34910045805187706 -0.22282384525493648 1.390389444299194
-0.3493078180984478 -0.22099120293114374 1.3882364183268925
-0.3455706564038212 -0.22676719695385467 1.387778138475216
-0.3534413075469202 -0.1891152890729716 1.3873152869165615
-0.3423696806442073 -0.22720031929804926 1.3850154856000798
-0.3453736382150036 -0.2051796578101262 1.3780062198114433
-0.3410364223055318 -0.2108113324197015 1.3808006339246515
-0.335984544061448 -0.22676763121542545 1.3786572375454307
-0.338412398891081 -0.22132107992280528 1.3774875516738592
-0.333477749976404 -0.23144078502731735 1.3799293081953834
-0.34647085170356723 -0.19990235064749 1.3748060107664333
-0.34647085170356723 -0.19990235064749 1.3748060107664333
-0.34017363353703856 -0.21581842646860774 1.3766651184862293
-0.3363117963880583 -0.21793943106837363 1.3750003185920199
-0.3363117963880583 -0.21793943106837363 1.3750003185920199
-0.34200214401207846 -0.20094626413368968 1.3719797659703306
-0.3306410696890384 -0.216669026337297 1.3757712179079
-0.32994179084337744 -0.21805263661476626 1.373575676527155
-0.33455629343617055 -0.19797844470712103 1.3703818428551433
-0.3269997521469291 -0.2065818889143158 1.371979669930358
-0.32519804728633517 -0.14946370820704283 1.400332117053535
-0.3251917272876329 -0.1407877919686414 1.40228337750668
-0.3215055656003809 -0.1534120541599981 1.398743128134582
-0.3209856831156074 -0.15540895007212469 1.3967958517921415
-0.3209856831156074 -0.15540895007212469 1.3967958517921415
-0.3181433539502552 -0.16651076319897537 1.3946750183097227
-0.31666166923090794 -0.16112260160511716 1.3961881634555713
-0.31666166923090794 -0.16112260160511716 1.3961881634555713
-0.3177441141679047 -0.1570938342110771 1.396194839780374
-0.31186800465516323 -0.1608903408745286 1.3948167187634122
-0.31186800465516323 -0.1608903408745286 1.3948167187634122
-0.3126565086621025 -0.1564926449304741 1.394256806508293
-0.30656422260492455 -0.17372177794793256 1.3939308967140276
-0.3096145381609019 -0.162653245411289 1.3939256453899556
-0.3101948223527966 -0.1524020729850886 1.394434919783093
-0.3101912649704669 -0.14749007617906668 1.3948590143958237
-0.2596010929142619 -0.14643421292159148 1.471216305824186
-0.30200555518026934 -0.16845625387174257 1.3951763190656057
-0.303910995250088 -0.14859794350246786 1.3946189910139106
-0.3000893485810512 -0.1597994046699834 1.3948126834902108
-0.293211439250554 -0.17176682219340494 1.3994150715235256
-0.2972841729793187 -0.1523744730270326 1.3958859791728015
-0.2904572998039012 -0.11312997923160165 1.4118616025915607
-0.2859021524282403 -0.11848920786240548 1.410159971318287
-0.2867007329093374 -0.11404613131639411 1.4092104001445283
-0.27699621574852645 -0.14530776587169825 1.406842601483839
-0.27940234154918264 -0.12978035352019246 1.4105756151079525
-0.27541996167625254 -0.14797328085453967 1.4070046383316352
-0.2787457339017332 -0.134217700400509 1.40686989770052
-0.2827143609192791 -0.11909774517795203 1.4073926965394696
-0.2827143609192791 -0.11909774517795203 1.4073926965394696
-0.2809388162186631 -0.12238831821463052 1.4080187572177807
-0.28333011296866034 -0.11203253368681747 1.4074241221823602
-0.28333011296866034 -0.11203253368681747 1.4074241221823602
-0.27438637404071636 -0.14253107135293883 1.405973415769452
-0.26198361067586856 -0.16013574719393422 1.410949311672799
-0.2705083178474649 -0.1419225744574848 1.4068292551474995
-0.27634789305882684 -0.11277382512005073 1.409221801935798
-0.27032381897010926 -0.13689139403597178 1.4065952101147448
-0.2701757029390913 -0.1306002186654336 1.408946056209151
-0.27789293367271084 -0.11181587942702971 1.4058164432908045
-0.26683604731177907 -0.14380562781861717 1.4063213198066624
-0.25789131399608045 -0.15501256009690378 1.4111420390846372
-0.27728862978620467 -0.09703977531663309 1.4088242156285493
-0.27496492025909336 -0.10612589969788377 1.406770670528865
-0.2638944892858579 -0.13819011061182962 1.4069292418914885
-0.25042194380378746 -0.16171975528435925 1.4141340297324976
-0.2647862142020215 -0.12850683296488044 1.4085945853627433
-0.24869938580985645 -0.1642546726412485 1.4148634728007352
-0.2596057239928534 -0.14269006927963618 1.4085874836015848
-0.2596057239928534 -0.14269006927963618 1.4085874836015848
-0.2666819933760223 -0.12329557774523146 1.4070512760620455
-0.2696165296118928 -0.11385577207623816 1.4066735349569608
-0.2696165296118928 -0.11385577207623816 1.4066735349569608
-0.2622296187459074 -0.13101930512842738 1.4089725147687957
-0.25430767466822835 -0.1479799249017213 1.4109197291853175
-0.2592136532620471 -0.13432001874230615 1.409589641142503
-0.2710465662254652 -0.10490936631145634 1.406361321022002
-0.2506262443533526 -0.15494837585963606 1.4121810569941875
-0.26053921984601897 -0.12957681887473732 1.4097606525061934
-0.2692693447630696 -0.10761491483013258 1.4060241519223973
-0.26403010970851665 -0.11338035042280367 1.406543123535432
-0.24761498370275373 -0.14351219682557467 1.4133535050042367
-0.2476883236613084 -0.14103081061500752 1.4127828193054481
-0.2509102531893347 -0.13310716474007384 1.4116025675557546
-0.2588960582064447 -0.11527983626046429 1.4084633076729145
-0.25488350860625636 -0.12097545294140391 1.4106488213657653
-0.24350635199972817 -0.14422906331645746 1.4150520493590992
-0.25153317923176 -0.12578955567368125 1.4113200409046434
-0.24049524474804193 -0.13858798188205904 1.4182491937546056
-0.2523223194207545 -0.1194389661219066 1.410218832994244
-0.22455924870743257 -0.17134696502648974 1.4398629731656452
-0.23132097016944855 -0.11872052043893024 1.4284111148359213
-0.23432757389111888 -0.1509061161145499 1.4216394754307884
-0.23443811614453466 -0.16760443958039672 1.4224322493840769
-0.23636084014565656 -0.173623325273231 1.426386888920301
-0.23636084014565656 -0.173623325273231 1.426386888920301
-0.23601235362001988 -0.1697637954727696 1.4234380047482404
-0.24779499553620837 -0.1214852809632749 1.413840150476134
-0.25739933792036596 -0.15372918330524887 1.4132233926073896
-0.25746637042306314 -0.15369204616486995 1.4132557936908263
-0.2853498363784054 -0.17423737221319288 1.4070928191405598
-0.2853498363784054 -0.17423737221319288 1.4070928191405598
-0.2894783099036451 -0.1771036045081756 1.4047645781180065
-0.2894783099036451 -0.1771036045081756 1.4047645781180065
-0.30206958652753885 -0.20197585393206352 1.393727880814573
-0.3053526305637988 -0.20949540612646286 1.390217544598072
-0.30460299474976926 -0.24630239059918987 1.389937349333419
-0.3081858894333305 -0.2385427756687367 1.3830342935720057
-0.3104384055872592 -0.2446390190053539 1.3815919495806759
-0.315442182126861 -0.2604312613009668 1.3792195751463794
-0.3207314274808754 -0.2645462956243083 1.3692532692928117
-0.32122359998127187 -0.257957303986221 1.3725337579318115
-0.31992649255233147 -0.2833812127844132 1.367251270876162
-0.31872081281612435 -0.27357868644000827 1.3712557607288953
-0.3168451309617657 -0.2663435088240079 1.3747129899046324
-0.31501626566813573 -0.2599381098165462 1.3777135508845748
-0.31501626566813573 -0.2599381098165462 1.3777135508845748
-0.23453692460367845 -0.12340604850148622 1.4133776093143844
-0.3159695698660257 -0.28585488790833985 1.3728933418413611
-0.2292895172442088 -0.12213425290143073 1.4186160946723694
-0.22496174541172873 -0.11305686222287746 1.4227154685368926
-0.31547246471714213 -0.2835229650038344 1.3802829106611885
-0.3129646845368554 -0.27395404347228935 1.3853980362840659
-0.2899105338055309 -0.1955015960353894 1.4070592525175476
-0.2915134153815615 -0.20482772733698312 1.4049180788047015
-0.23274482674524108 -0.15591146940161243 1.42201569215732
-0.27780918984969394 -0.18590927317504907 1.4163859435990531
-0.21324464154100872 -0.13894298007103453 1.446472785360837
-0.29847773498449953 -0.21676695909739704 1.4326240293798418
-0.28554531550854095 -0.19387431416198667 1.4403148189377317
-0.2823358812893048 -0.18825130205037097 1.4452252221430246
-0.23650028186276537 -0.17573473278314047 1.466082318862767
-0.22510230368995887 -0.15878984300886387 1.47276879845223
-0.2264830437568209 -0.1542839804769272 1.4768723427869817
-0.21733794487719257 -0.157538243615857 1.454163448954348
-0.22149256031283113 -0.16286022700262248 1.4510441517895531
-0.2210280941824132 -0.16215162812411463 1.4536924748860152
-0.21631089791460134 -0.1471408691628218 1.4640860745316218
-0.29106246367639077 -0.21047763196151048 1.4148218197770748
-0.2236706427982682 -0.1558820193221647 1.4705914204277482
-0.29173830473749635 -0.21007058901760467 1.4239629137562158
-0.22652245008335534 -0.1576793666800285 1.4711250556036435
-0.23448128350127417 -0.172780892429106 1.466462145226721
-0.2279380413567395 -0.14368981532392955 1.4789938870992758
-0.28652053516576587 -0.19561410588446362 1.4374132599905003
-0.29610677660135476 -0.21123799772291607 1.431699698231917
-0.3003636461864513 -0.22146793965552491 1.4283422089105915
-0.28373491133049406 -0.18771944377329272 1.4447220901335611
-0.3015051403974614 -0.22016590740468603 1.430132203621785
-0.234140762172615 -0.14301269369626737 1.483793003136949
-0.28788035299739195 -0.18858510490730665 1.4466733128328226
-0.3043521843919032 -0.2217969878873073 1.4313993987061302
-0.23735572755625522 -0.15742790624549594 1.4803570798466275
-0.2981179092351795 -0.20160192178362799 1.4391861264573542
-0.30316080822963215 -0.21697748391791208 1.4346860975857056
-0.3033674137270186 -0.2138066363388931 1.4369656957149552
-0.3033674137270186 -0.2138066363388931 1.4369656957149552
-0.3016897069299275 -0.2070247617367334 1.439932597271165
-0.3015944975513108 -0.2038685606733372 1.4410090990442517
-0.30340663063632695 -0.21071720100675906 1.4384864786500116
-0.30588524260860067 -0.20759234003823315 1.4422037950408209
-0.24965992204881865 -0.16301836179247436 1.4816411002353815
-0.311170414268357 -0.15860691054297216 1.4714116356825726
-0.23423950687016398 -0.16953643855430303 1.46770454295769
-0.22979390825715645 -0.15071399565618496 1.4781801287260594
-0.22979390825715645 -0.15071399565618496 1.4781801287260594
-0.23163591972913686 -0.1567818466209396 1.4762670799560147
-0.3000072748984912 -0.2229963617718603 1.4267462059141687
-0.3000072748984912 -0.2229963617718603 1.4267462059141687
-0.296271110689237 -0.2070487312453342 1.433863219062253
-0.2993390122113103 -0.2162168091515268 1.432147068444537
-0.29399887281152853 -0.19075106044910764 1.446237627191431
-0.3199961619020494 -0.2291600823108042 1.431771837202879
-0.32201003861265487 -0.22740515534983247 1.432969388593313
-0.3043665456046609 -0.18064681800197496 1.4567322163806993
-0.2584926462784429 -0.1543685192154398 1.4866334650926052
-0.21957848930871846 -0.15700243407176667 1.4433036179974248
-0.3037097219143554 -0.21628585595697938 1.3955654211252293
-0.21888231426229948 -0.1103387993634332 1.4773079476317243
-0.31296660271886795 -0.2937512822685496 1.3769908451619546
-0.22133848576531365 -0.15264471372556299 1.4711656664511805
-0.28889405303598437 -0.20568271297829194 1.414463321009717
-0.29122181540601283 -0.21494771715210775 1.416027026240378
-0.22664815825338425 -0.151687767037017 1.4774171766648585
-0.28964480502540435 -0.20824505581238645 1.4230499034340542
-0.22364496055115457 -0.10657495403050563 1.4927422422025314
-0.23494895753698777 -0.1671556142086174 1.4728112212852418
-0.30648368000892895 -0.2323428459234602 1.4150959983060947
-0.2964111854621693 -0.22088664888685505 1.4245102059035486
-0.29745263220913054 -0.22360218687432126 1.425507385030271
-0.2385608259856974 -0.15933610392071354 1.48170616390681
-0.24116065710185547 -0.14739642464560848 1.4887130817634513
-0.28989160408662573 -0.17961726938537853 1.4535314439197318
-0.24836734707169755 -0.16039012568157793 1.4852745171003732
-0.31138173294445975 -0.2293518030560991 1.4309809676010974
-0.32114146662502185 -0.23816643709779364 1.4252666592767471
-0.3153824940931641 -0.2295442162231271 1.431224670569434
-0.3153837574635921 -0.22750587136398223 1.4320021913841223
-0.3154689299410448 -0.22595046471854693 1.433598665660881
-0.2565983588973094 -0.15221475428607611 1.4893078431074702
-0.3099089577499385 -0.21262429134672636 1.442261117615232
-0.30902289077244255 -0.21054694259501305 1.4433716568150632
-0.30319018714853596 -0.18794791303818048 1.4529418427903522
-0.30319018714853596 -0.18794791303818048 1.4529418427903522
-0.3010822745366297 -0.179173862651789 1.457606559021852
-0.3010822745366297 -0.179173862651789 1.457606559021852
-0.27004448348152427 -0.16471513993044878 1.4822774626153319
-0.26733536340292496 -0.15525439097570598 1.4885953457772736
-0.2575958378968179 -0.1331073915898131 1.5016425928472488
-0.25885477638804766 -0.13702740008703274 1.5000262902946593
-0.2634463466534222 -0.13937712493715254 1.4992642583402838
-0.3381339861131051 -0.18552525238976583 1.4421057295692163
-0.3114776039881613 -0.16770725410722118 1.465900435491052
-0.2704407573535985 -0.1349532732072896 1.501104031474335
-0.2704529852028492 -0.1273894757625483 1.506113251328567
-0.2748737877837317 -0.13431035739520505 1.5021435249150523
-0.2272148634257758 -0.14440963206888593 1.4791194477302732
-0.23109855061473245 -0.13051078331077948 1.4874237822870828
-0.24857503440694206 -0.16580727663767764 1.480789194563769
-0.24857813553894417 -0.16306550034333372 1.4833023156405778
-0.2522403819685112 -0.16387913464332618 1.4835900886237192
-0.2586519856940945 -0.14990296127157765 1.4914687953757915
-0.25878038092578803 -0.14610169313599283 1.4943690789353807
-0.2976341117076656 -0.19785370748419961 1.4401390796557763
-0.3005495652186437 -0.2202297373443786 1.4306539975808819
-0.3005491613674671 -0.2202168503508103 1.430723972027657
-0.3014750485162132 -0.20698560860335974 1.4403378451714932
-0.30278056554354915 -0.21383480421821566 1.437412904834347
-0.30278056554354915 -0.21383480421821566 1.437412904834347
-0.27117874716288787 -0.12981185313918436 1.505092409214502
-0.30563252773225286 -0.2076039120984342 1.4425856212060915
-0.3080152792059516 -0.19151458295491292 1.4486379956893611
-0.3029693080212832 -0.16933831039144726 1.4636126580701647
-0.3108983384745712 -0.218312720705688 1.438384673601349
-0.2807285616302603 -0.13324545878148836 1.5043664302635733
-0.30437869676907153 -0.16621688453320005 1.4654836760455372
-0.3116919589463741 -0.21451390171993154 1.4416560645518386
-0.30673231686210134 -0.17249052637323745 1.4622579234167574
-0.3197085886692706 -0.22356390455572292 1.4349033645130165
-0.3157085094363187 -0.2072944675463418 1.4457721854700785
-0.32550637895708634 -0.2283678261152955 1.4335037449508112
-0.26271637388949964 -0.1527390350422945 1.490274662610098
-0.24516278593582247 -0.17114878821526913 1.432430387668906
-0.2295922728422018 -0.1514465326864663 1.4787679862350764
-0.2311129933549726 -0.15709227672805356 1.4775085135247366
-0.2414938695871881 -0.14739853777959683 1.4878394357354405
-0.2414938695871881 -0.14739853777959683 1.4878394357354405
-0.2470411316244672 -0.14732215611808985 1.49075692874346
-0.24741735352052385 -0.14701681142950265 1.4905641617114986
-0.24450416205392425 -0.16270292323426866 1.4810523028400742
-0.24567166263811313 -0.16691458066091422 1.4792818620967836
-0.24814697431406643 -0.1594499782366198 1.484532350300348
-0.24814697431406643 -0.1594499782366198 1.484532350300348
-0.24814356062830778 -0.1593473656411256 1.4843931115902909
-0.24814356062830778 -0.1593473656411256 1.4843931115902909
-0.2576720652900402 -0.1332336445638206 1.5002712868381145
-0.2588228928566824 -0.13696830981785632 1.4993982817564804
-0.2632566185966002 -0.12963246643141266 1.504039751144659
-0.2632566185966002 -0.12963246643141266 1.504039751144659
-0.2627824925641538 -0.13384419311235946 1.5012299319337628
-0.2575472236730799 -0.1624530064623272 1.4841345237785382
-0.263062431306534 -0.1390949982148608 1.4981675680007929
-0.2567406401529209 -0.17131817665540844 1.4781300990539623
-0.25931336656811993 -0.16657651001600052 1.481513478264944
-0.25935493489475725 -0.17114652473713501 1.478663645257518
-0.2684345702316834 -0.09780561046534475 1.5056129066446506
-0.26327910314805186 -0.1614505922549137 1.485360192411453
-0.263501449133586 -0.15906621584078748 1.485726229668091
-0.2705431728139867 -0.1276410926806194 1.5057902923322208
-0.26812338201899116 -0.13703337600653648 1.4979726472818322
-0.27019736495070706 -0.13501137957718268 1.5004852833531186
-0.26138628678895404 -0.1759789514699302 1.4730846095784906
-0.26138628678895404 -0.1759789514699302 1.4730846095784906
-0.26706008658964686 -0.15517487467358082 1.4898858643603643
-0.26685202123685886 -0.15884212291761823 1.486328593702586
-0.26668340792575507 -0.1617767844393238 1.48412090557124
-0.2638984711346369 -0.1749523961671294 1.474036189832237
-0.2638984711346369 -0.1749523961671294 1.474036189832237
-0.27129262786314307 -0.14715775493556604 1.494950319946532
-0.2705626909596398 -0.15117501098214553 1.4916068907162807
-0.27463164177868965 -0.13431794579650064 1.501988283661675
-0.26757274226208455 -0.16528300765601583 1.4802040623327903
-0.2698495533176617 -0.16407058624875834 1.482471344821458
-0.26773963620918034 -0.17119469338750276 1.4746097535612892
-0.27422727493053595 -0.15339404029479758 1.4902653458441697
-0.27422727493053595 -0.15339404029479758 1.4902653458441697
-0.2774401411560546 -0.13848997832473173 1.4982144662496144
-0.279557070258393 -0.13815645609579838 1.5004134808451932
-0.27744297962153075 -0.14785996356236963 1.4937624200215018
-0.27975621000593454 -0.1365958162665317 1.500678001146887
-0.28184985820221176 -0.13121976796652987 1.505361452966573
-0.2771066288093577 -0.15733974109295656 1.4866786822903875
-0.2771149442566019 -0.1610238558921912 1.4833837666150207
-0.28385251585449645 -0.13985559350469043 1.498190007924421
-0.2823074975058583 -0.14634517664576316 1.493278858602402
-0.2800020247737259 -0.15821818889804926 1.4859911402650752
-0.28255122547839057 -0.14934686601931998 1.4915290159450965
-0.2795455127633811 -0.16088866543401467 1.482188331742221
-0.2826565880578052 -0.15439003345197724 1.4879135409454025
-0.2765714543608373 -0.1745882278039273 1.4685447014101543
-0.2765714543608373 -0.1745882278039273 1.4685447014101543
-0.284946256360825 -0.1481735491805375 1.4921609760374666
-0.284946256360825 -0.1481735491805375 1.4921609760374666
-0.28874712213131054 -0.13449638087611063 1.5024854997194401
-0.2829742226853647 -0.15814264176401827 1.4831400737897198
-0.2889387678194491 -0.13813094934404832 1.5002444210749366
-0.2830963992883497 -0.1618149532671894 1.4813614209201174
-0.2815474297035147 -0.16911472734275235 1.4737492624450512
-0.2865222326058919 -0.16416215452524852 1.4758418562901432
-0.29182534466006 -0.1434966265267878 1.492010125670407
-0.2949959931379203 -0.13802504263136406 1.4993027878460168
-0.2871757086761977 -0.16729127132967397 1.4711891130152872
-0.2893985805902655 -0.15968023320004918 1.4777035784090706
-0.29104330080461127 -0.15811384880109858 1.4802161531302758
-0.2985467302043349 -0.1313566408636241 1.5017609130652605
-0.29847405261254806 -0.13327569757022423 1.5009853087152545
-0.2888541836453145 -0.16615407931908485 1.4711610055297304
-0.29496452852818106 -0.1457428671367732 1.4896245218954935
-0.2981472488278286 -0.13862431170133413 1.4967553074060602
-0.29625242878066504 -0.14427621010705827 1.4908271516607683
-0.29168070978283805 -0.16325600031024542 1.4724051139833927
-0.30041101549829485 -0.13393012038712437 1.4991807461166051
-0.2953865410768808 -0.15511215747720256 1.480280862713627
-0.2967648337322355 -0.15287399838871843 1.4824723790183583
-0.2935230692024984 -0.16196291988538164 1.4723445944615166
-0.2972772317750174 -0.14888927137272248 1.4836943759360874
-0.2946056557152216 -0.1594204199236002 1.4747352028441572
-0.288155413342748 -0.18862854431075407 1.4481755334277537
-0.30392594543143736 -0.1353186366876057 1.4965567916986395
-0.29484284832034463 -0.1687020332473026 1.4664084909744783
-0.2931953849664015 -0.17643267465062815 1.4596059196016968
-0.2992270778025904 -0.15512081142594206 1.476643396058074
-0.29260996696489344 -0.18224971420866717 1.4553835964792161
-0.30586729957625275 -0.13306028457297442 1.4956327535938325
-0.29853524239558193 -0.16069202303893204 1.4712309133431296
-0.29484598059588424 -0.18210304999534863 1.455253030862528
-0.29484598059588424 -0.18210304999534863 1.455253030862528
-0.30630571845679255 -0.1399778412851954 1.490591998433817
-0.30323956005358066 -0.14648805180302724 1.4799649927239915
-0.30323956005358066 -0.14648805180302724 1.4799649927239915
-0.29744367717324477 -0.17746878969202087 1.4587116589084586
-0.2897386212325132 -0.19757039871498672 1.4341866408993118
-0.30234651824384823 -0.15800130761067063 1.4729326329066295
-0.3085970070047893 -0.13674621414699098 1.4916062893315294
-0.29886825756238083 -0.17510333992754684 1.460696035709942
-0.2980286111009273 -0.18154030130584323 1.4550962719294802
-0.29794632454812936 -0.18856663837947615 1.4515049560423954
-0.3013519421974217 -0.17919771010566907 1.4579607981556426
-0.29635545595686813 -0.20697626668451 1.436391916308444
-0.3044553483420459 -0.17522169941802568 1.4608934354779963
-0.3017932278123751 -0.19165042481827305 1.4496764006033547
-0.3017932278123751 -0.19165042481827305 1.4496764006033547
-0.3046289616546996 -0.18084716257743794 1.4573414044101274
-0.30330228853653346 -0.18761598134559052 1.452720301996406
-0.30279774283375027 -0.1897371608273386 1.451024495686916
-0.3012784792107351 -0.19457404722063898 1.4447650674396795
-0.29567220125362553 -0.22155766861695675 1.4244900533219431
-0.29722370224632133 -0.2799105019991702 1.4272133711957269
-0.3049847266836206 -0.18656514456507592 1.4529878659151203
-0.3049847266836206 -0.18656514456507592 1.4529878659151203
-0.3015376665277954 -0.20391443661011052 1.4418378445964801
-0.30891397719315505 -0.1675420601810644 1.4651666775146146
-0.30891397719315505 -0.1675420601810644 1.4651666775146146
-0.3060213759477211 -0.18403243971061026 1.4554786260338408
-0.2934814409148455 -0.293010023535144 1.409148021529701
-0.2934814409148455 -0.293010023535144 1.409148021529701
-0.30214738767041804 -0.21704087655565787 1.4362660094321922
-0.309982454913119 -0.17579724375409012 1.4605044883811977
-0.3120800720133112 -0.16782295239928874 1.4658432352378148
-0.3105513616596179 -0.18310672436833694 1.4563105641844662
-0.3147399835675318 -0.16157186518250727 1.4681954357865674
-0.3147399835675318 -0.16157186518250727 1.4681954357865674
-0.30506376364506865 -0.21755396598890525 1.4368559886490906
-0.3093326476548971 -0.18857003616773826 1.4506332658211007
-0.3065281441816102 -0.21708140875088996 1.4376201721844546
-0.3065281441816102 -0.21708140875088996 1.4376201721844546
-0.32028625492667634 -0.0985618339597715 1.4814075432132399
-0.30880532061020477 -0.21019452811532882 1.44323843540066
-0.31071979840941416 -0.20555407555661134 1.4458129747001203
-0.31071979840941416 -0.20555407555661134 1.4458129747001203
-0.3063011524414679 -0.24753003933890855 1.4281544007355813
-0.31745498211104484 -0.169660715370196 1.4631720986018015
-0.3185144209143449 -0.16711750766359112 1.4653002475831616
-0.31401490010907673 -0.18843188972109495 1.449984758734685
-0.31763132050847803 -0.17181049370878784 1.4597926432573451
-0.31763132050847803 -0.17181049370878784 1.4597926432573451
-0.3211546326060651 -0.16600371065439526 1.4646090018515328
-0.31700474430812947 -0.18660950761444356 1.4502796059724716
-0.31206968990054745 -0.2291594709624982 1.430442286376091
-0.3128567973879661 -0.23402413975711048 1.4281905499563212
-0.3157832345904819 -0.22047014668387363 1.4364521203702907
-0.32411484780716077 -0.16607449302507674 1.4629974343204166
-0.3148909555822087 -0.22739657265301677 1.4319257196701143
-0.3212178363149239 -0.18280550485871222 1.4508196283217991
-0.3157480012385331 -0.22572091839094682 1.432691359589608
-0.3157179172401603 -0.22948528909620583 1.430631044944182
-0.3212166164927903 -0.20150536174834702 1.4474376204563009
-0.3230891975788303 -0.180225294424519 1.452029651284718
-0.31599924739150276 -0.2385205617611634 1.4261579250486647
-0.32626170561893725 -0.1684752395173074 1.4592246736032737
-0.3272685694397093 -0.16573847076927697 1.4610762024100996
-0.317714266671654 -0.231395285951117 1.429433911294973
-0.317714266671654 -0.231395285951117 1.429433911294973
-0.32954296240614467 -0.1523079856206652 1.465481220632711
-0.322758873665436 -0.21067646390139175 1.4432849010445652
-0.322758873665436 -0.21067646390139175 1.4432849010445652
-0.3206353171055839 -0.21986152848762203 1.4360489384830657
-0.3206353171055839 -0.21986152848762203 1.4360489384830657
-0.31988308801892823 -0.2293903824238031 1.4321912922482662
-0.32027372182476543 -0.23358222370335377 1.4295218080776906
-0.3216886607120523 -0.2257521843457392 1.433713956227654
-0.3216052996418838 -0.2276604738072769 1.4326998234595578
-0.3216052996418838 -0.2276604738072769 1.4326998234595578
-0.3236659503394514 -0.21158731175937837 1.4392502741443773
-0.3261513851618899 -0.20397747779911157 1.4456294788577788
-0.32953230836724623 -0.17074725606315747 1.4549196240707032
-0.326221798363537 -0.20784667811574978 1.4438961284521055
-0.32482722918120194 -0.21720473835445347 1.436676982204292
-0.32581628567462206 -0.213095730949608 1.4393189758849185
-0.32581628567462206 -0.213095730949608 1.4393189758849185
-0.3233107647590873 -0.23161469952053135 1.4311997506954508
-0.32774368267604326 -0.20594995708914446 1.4431731467296565
-0.333390318212913 -0.15630617216286927 1.460962219449421
-0.31539327128950556 -0.2746713913097985 1.4012507092807014
-0.32538645939579164 -0.2304951737195986 1.4316513583061636
-0.3355212002400269 -0.14966915951735074 1.4626408992620428
-0.3269417298613306 -0.22043234264145026 1.434564644204606
-0.3343709612621804 -0.16231049568251313 1.4573162352814564
-0.33092865743664734 -0.20497690252673634 1.441721279728004
-0.3257189271440061 -0.2375922593039463 1.42328596742
-0.3369115122621905 -0.20060610574831622 1.442884142203755
-0.3342702968478441 -0.2270563359430069 1.4325312456728483
-0.3342703411048678 -0.23579990040018245 1.424305058014809
-0.33685110664826745 -0.21816130528824096 1.4273268021523224
-0.3383080624570527 -0.21314490266706837 1.4317864095995851
-0.3552089616975547 -0.20435113465609278 1.4289655057354587
-0.35710483703509605 -0.20106497268322449 1.4312150663201169
-0.35710483703509605 -0.20106497268322449 1.4312150663201169
-0.3558280685698116 -0.2001989653729919 1.4198455131573198
-0.3603585970010371 -0.20683403300401526 1.4243472179311467
-0.36631506584643747 -0.19735888688198736 1.418498365691593
-0.22698696499403231 -0.14453890889878224 1.4789239250228836
-0.24136727173563874 -0.1634295412123017 1.4796805193856803
-0.2485239682248308 -0.16269826847169305 1.482969507361675
-0.2484780370101343 -0.16546925060907353 1.4805609028640425
-0.2521819842410514 -0.1634965166698192 1.4835311526987165
-0.25938085452962306 -0.14221627063612943 1.4963097690430087
-0.2587214844262091 -0.14604326492986766 1.4940022289084496
-0.2586010311927432 -0.1499215505237614 1.491634469115832
-0.27111258244130004 -0.12987262233128152 1.5048032063863148
-0.2807490002942187 -0.133226619887145 1.5039655419618423
-0.2811454971953297 -0.1406240039895083 1.498236817098388
-0.28150694630564405 -0.15216962889526076 1.4902158564877117
-0.2850390663009865 -0.1449852362761325 1.4924309433193717
-0.2920450430244491 -0.13188484521015062 1.5041305799239246
-0.2926884867631586 -0.13935812879467674 1.4987067470262252
-0.29334280922628897 -0.14692652367569842 1.4873437401991099
-0.2908351245378051 -0.16590938596066818 1.4698677833462677
-0.29975024316636584 -0.16475409695650028 1.4675638542153542
-0.30424290212098487 -0.1662101479060163 1.4657734241902842
-0.30847500679454753 -0.1623496390176594 1.4683853952992014
-0.30675365396557996 -0.17246027901383784 1.4624240555396548
-0.2985319694157941 -0.21600218764117515 1.4333450608631209
-0.30147408546333426 -0.2068086317384802 1.4406562909288763
-0.3079558420828714 -0.19142202018021998 1.4485935646341939
-0.3087730891699246 -0.1995260416585608 1.4453691243699636
-0.31434728917826926 -0.17424350098403726 1.4606611643173038
-0.30733100476964403 -0.22077203676260296 1.4342823346729414
-0.31161608411814234 -0.21471303184242535 1.4429011772896398
-0.321742387983282 -0.20825105578656963 1.4447025332470438
-0.31979044458470746 -0.22345602683489796 1.434467384460541
-0.31979044458470746 -0.22345602683489796 1.434467384460541
-0.3179978724940413 -0.23641972278049578 1.4265133973091517
-0.3179978724940413 -0.23641972278049578 1.4265133973091517
-0.3256467600384499 -0.2286184516529918 1.433526106222609
-0.32836218203379813 -0.2099598965387043 1.4403254458594825
-0.351888290038489 -0.21383104336531675 1.4264291394782251
-0.2260741753748013 -0.15776772295137467 1.4712833239969596
-0.22434169295015913 -0.13596132852662407 1.480860480856911
-0.23690181748582867 -0.157106292771431 1.481121884909389
-0.2378662860404778 -0.1561151745432119 1.483008931254102
-0.24519085001301566 -0.15865602013204078 1.484418827595973
-0.28679992531527676 -0.195215896886048 1.4375871129822289
-0.28404641866467495 -0.18761354304218048 1.4448367710815146
-0.2882194830509831 -0.1884507268613057 1.4468176219425894
-0.2967474971304149 -0.21114154605490068 1.4312118493157975
-0.2983692358850154 -0.2226399406141977 1.4259042156050392
-0.26750160901225944 -0.15267556369585308 1.4905394320730139
-0.30241150218479596 -0.21698990823064454 1.4353824726027284
-0.27613199777784425 -0.1507156907606027 1.4930986173260157
-0.30508006803706594 -0.1933962954324909 1.4463252954212806
-0.30495970464006955 -0.2102301347824304 1.4410537748606227
-0.3059867335743587 -0.1839471017078346 1.4548728581018946
-0.30920952319046463 -0.1843015372963635 1.4552456081590834
-0.28196356496996794 -0.13142239876919734 1.505846751691781
-0.3098417775465866 -0.17571551877138777 1.4602427174998203
-0.32315976711578964 -0.2312132600422446 1.432069157896446
-0.35372240882467404 -0.1981941538899322 1.4263041138414834
-0.22870203802045538 -0.14672102633865772 1.478257124947188
-0.23317697750103894 -0.14332818354073168 1.4830363072289718
-0.23515393714892033 -0.1660750711036675 1.4722208990177597
-0.24854829952247492 -0.17032847023955866 1.436233623894034
-0.24986240497649026 -0.1726975897279766 1.4757159974254537
-0.2553819110546591 -0.14420179641762987 1.4939975057865487
-0.25544627519128316 -0.1370684661667497 1.4976248309854052
-0.2564185928868928 -0.15161928030210386 1.4891503094644012
-0.26116778021961373 -0.1597639642550305 1.4867596946673158
-0.2616466237246112 -0.1464791029915601 1.4944813866647257
-0.26684436594038663 -0.17406451997434336 1.474916030519718
-0.26766874271608343 -0.16891093865880896 1.479001631605378
-0.2694039851517333 -0.15456435493124457 1.4897835870731642
-0.2694039851517333 -0.15456435493124457 1.4897835870731642
-0.27252152274025015 -0.14484348975473432 1.4974172282878169
-0.27389243452551243 -0.15072772962777292 1.4932165262326527
-0.28022955402868405 -0.1546206366025636 1.488373881119247
-0.2869346524045461 -0.17837599200780924 1.4546326752967627
-0.28693329571864457 -0.17831745332911228 1.454779310858824
-0.28892155689747584 -0.17976372286531575 1.4552031827163407
-0.2938892362078286 -0.1909492135325196 1.446561651327834
-0.29660139897229854 -0.20308509244840992 1.4359246435163238
-0.29780603928774946 -0.19434245704679506 1.4447660650253304
-0.29494333292988884 -0.28122719692670456 1.4298539195481506
-0.2988226123840656 -0.17087456755566766 1.4591257394882158
-0.29761330872115505 -0.1630529871742428 1.469567118487695
-0.2992602470421964 -0.1776251330991983 1.4577937977319728
-0.2992602470421964 -0.1776251330991983 1.4577937977319728
-0.309088411474058 -0.2276613877477376 1.4314544293674352
-0.31048269477273 -0.23017301134824855 1.42685622329634
-0.3094692013714496 -0.1878791845491157 1.4508318770632553
-0.3098545388745549 -0.18156013082916536 1.4571001146296354
-0.31419273646835033 -0.18549168257030207 1.4535065300558443
-0.3140732191150894 -0.1801774731689637 1.4566889820663058
-0.317366169257328 -0.2141286127657278 1.4429048225987124
-0.31799314903277265 -0.21533960708899313 1.4408600225585444
-0.320047836169517 -0.22147667459475925 1.4353117855505813
-0.32184138180831107 -0.23716350738743022 1.4251389905532466
-0.32146376012700917 -0.23241880656404876 1.4317303977051585
-0.32090209870262904 -0.16238779502580655 1.4657401123216691
-0.32090209870262904 -0.16238779502580655 1.4657401123216691
-0.32695111279052 -0.23641946030441902 1.4288881693390476
-0.32949145823500453 -0.16284769809670221 1.4593424765220997
-0.3312251900446184 -0.1992378198920236 1.4451352024218589
-0.34348570292327035 -0.22739804031340244 1.43145210923133
-0.34348570292327035 -0.22739804031340244 1.43145210923133
-0.3479415171004242 -0.181993941154143 1.4335741685653771
-0.24148002189261714 -0.14690016437643932 1.4879017886995298
-0.244142894811227 -0.16299880780465603 1.4829610477164012
-0.24796053319229325 -0.15982351331012326 1.4856330550548298
-0.24824335172699832 -0.16318862790201835 1.4842854945338917
-0.25185541145754486 -0.16389931659561935 1.4846656452519253
-0.25819403880671227 -0.13267286835769845 1.49936653790399
-0.25819403880671227 -0.13267286835769845 1.49936653790399
-0.2589007051745014 -0.14587575442430753 1.493703735756605
-0.25727092435573834 -0.16295334923234103 1.485314679302935
-0.26350369657601325 -0.13895782592320557 1.4981087910700903
-0.26407794028235926 -0.1489709439137088 1.4930713320552762
-0.26407794028235926 -0.1489709439137088 1.4930713320552762
-0.2635342611277609 -0.15987754104560853 1.486894524693739
-0.26687561688895506 -0.1552019642819094 1.4892532434695498
-0.2675521370344277 -0.15263070924731081 1.4904705766575521
-0.271292159065887 -0.12687360158763597 1.5035215704082918
-0.27075558937734295 -0.13471905434076611 1.4996005622658224
-0.2717374080365945 -0.12943870404860783 1.5026770836874592
-0.2717374080365945 -0.12943870404860783 1.5026770836874592
-0.27156071782360347 -0.1471556629078072 1.4946157093916599
-0.27156071782360347 -0.1471556629078072 1.4946157093916599
-0.27079415409383917 -0.15149648510063252 1.4916399800599958
-0.26969978439896947 -0.16454774513558934 1.4832950854841342
-0.27402014022038634 -0.15088553247675168 1.492716676960322
-0.27243418570892375 -0.16192623694248573 1.4837272148491438
-0.2799066301628679 -0.13806706374063 1.4992089255626426
-0.28117620785375996 -0.1329188775928084 1.502346607438246
-0.28247099835833434 -0.1312402016582339 1.5040944046797402
-0.27985478882783715 -0.15867447988024966 1.4858283022035033
-0.28501773066347963 -0.14823626569342868 1.4915522178612048
-0.2832127554984973 -0.16244212635663202 1.4809187163995563
-0.29439066673966074 -0.18217644534652097 1.4551656201518883
-0.2996879634335124 -0.16500452224055057 1.4677976598033817
-0.29706824774660345 -0.1775919281180158 1.4588062541163578
-0.3011448057617403 -0.17909735908466404 1.4580793230017952
-0.30413131760660467 -0.16644369559140704 1.4659204136640824
-0.303149411111793 -0.18805090914818784 1.4534291906583148
-0.29874028238582573 -0.2008622325752023 1.4408940295895416
-0.30494275235001145 -0.18715124882427925 1.4543372811369566
-0.30871038140905877 -0.16788787739514485 1.465499904519531
-0.30579658010462485 -0.18415276488318752 1.455706350143403
-0.3092415930638188 -0.18429105146305816 1.4554416786148117
-0.3147047738804895 -0.16153793903285896 1.467971796239557
-0.3064854963794414 -0.21753113654095624 1.4378773276067804
-0.30876669970190185 -0.21062612856254906 1.443974506172101
-0.30876669970190185 -0.21062612856254906 1.443974506172101
-0.31059300737698725 -0.20574154030319183 1.4465290259453762
-0.31108556140579763 -0.21503828490304752 1.442561020137035
-0.3103583451076611 -0.21695229974154723 1.4404183554000594
-0.3185378525708076 -0.167100644881883 1.4650490671571907
-0.3106497413467515 -0.22727607870020697 1.4309612387611508
-0.3212988788378934 -0.166426324688535 1.4644372849741691
-0.3212988788378934 -0.166426324688535 1.4644372849741691
-0.31029297869571504 -0.23598067502772477 1.4278387787570992
-0.31856153957830957 -0.21252373531922022 1.4430856827900165
-0.31582795020527515 -0.22572697065145528 1.4326368653378263
-0.3219538703032166 -0.20804766970235603 1.4445817393580414
-0.3232997490197717 -0.20651300157404964 1.4458669619893645
-0.3183274156817104 -0.2314729695757912 1.429646879041099
-0.32017239445324064 -0.2233968846598421 1.4339044721029448
-0.32017239445324064 -0.2233968846598421 1.4339044721029448
-0.3241046111715428 -0.20915008490187809 1.4442458463036227
-0.32010491004167896 -0.2290569211299223 1.431125364443961
-0.32174809144078587 -0.23230924329167274 1.4302385411265095
-0.32174809144078587 -0.23230924329167274 1.4302385411265095
-0.32604417675001157 -0.21268763956158215 1.4388184580507903
-0.32604417675001157 -0.21268763956158215 1.4388184580507903
-0.3281082323669467 -0.20551648508021894 1.443072634248767
-0.3260420124251293 -0.22819175163701566 1.4327263285064258
-0.32790464947344133 -0.23344922478985697 1.4286142990977284
-0.33154727344798646 -0.22452555662362791 1.4344171473488958
-0.33230515223185686 -0.22754591697221765 1.4334245367791492
-0.3578482167739062 -0.1946598002956662 1.418028097542651
-0.25550690805558757 -0.13736468083743475 1.4979821662432768
-0.2543579901589377 -0.16088347472192233 1.4853775216482736
-0.26138329276477723 -0.1599857733150706 1.4865727318688173
-0.2593685786826479 -0.17121733491246818 1.4785108456158025
-0.2670946691931781 -0.15908962798738657 1.4862437955181405
-0.28508093359091025 -0.14492177807768317 1.4923929265171785
-0.2987339926434381 -0.13173566123218783 1.5014621207746042
-0.2885861631161634 -0.17963448782152483 1.455503831162438
-0.3027477501829701 -0.1692375743134816 1.4638414576457508
-0.3042024055575014 -0.17514548547913986 1.460434791189571
-0.3042024055575014 -0.17514548547913986 1.460434791189571
-0.30792370178789213 -0.19147942086789113 1.4487953203716302
-0.31210104704433406 -0.22922048871818923 1.4305136988426979
-0.314838799058562 -0.22753944925586012 1.432351790997311
-0.31565838446357847 -0.22949285054196777 1.4306664765017068
-0.325601929390968 -0.20131567167645842 1.4463941086049334
-0.32712222812782715 -0.22060238877392027 1.4351166179860126
-0.2627717823629335 -0.1524963583347694 1.490199024424575
-0.2605394402145727 -0.1750941848050036 1.4731953852572945
-0.264889523636222 -0.1729225810627829 1.4761138975214196
-0.2718090622237874 -0.1723066959883118 1.4733243207085391
-0.2718090622237874 -0.1723066959883118 1.4733243207085391
-0.2769575944888876 -0.16091866849136996 1.4831844697905223
-0.2823928439750286 -0.14644802458203146 1.4927587066585075
-0.2837922828704523 -0.13975664062012144 1.4969311465861792
-0.28291186660390527 -0.14985723989518995 1.491525762618628
-0.2832693278635701 -0.15845331169441404 1.483604248094452
-0.2809729066404084 -0.1684371024597377 1.4732574489957184
-0.28035923201682805 -0.17169302161640518 1.469192466239589
-0.2866673460574467 -0.1599946892727869 1.4797042202269923
-0.282009621808463 -0.17429668644346602 1.4632693081360324
-0.2861292362145246 -0.1636672673231696 1.4761562694402524
-0.2921108789567754 -0.14386178394805835 1.4917314322714585
-0.2952054005468755 -0.140771537308816 1.4941478312597585
-0.2952054005468755 -0.140771537308816 1.4941478312597585
-0.2885353774411762 -0.16578673927261814 1.4712436216001201
-0.29611955912473786 -0.14399511976023793 1.4896110832135807
-0.29064694730878754 -0.16554830272959578 1.4700787841896639
-0.29064694730878754 -0.16554830272959578 1.4700787841896639
-0.2952067718335323 -0.15471641906099784 1.480237479224828
-0.29355966668729977 -0.1621162624200526 1.4727311531352902
-0.292099232800866 -0.16505188519452327 1.4689615785160468
-0.29456413239697005 -0.1589200559425617 1.4750015536345396
-0.2943075676908835 -0.16799644412874104 1.4654556517712505
-0.2990482920649671 -0.15484434705038833 1.4767174812359944
-0.2981639058829437 -0.15997022884505474 1.4710301867480169
-0.3055554837967923 -0.1327998889469166 1.4944541490590542
-0.30207497659979754 -0.15748067087842307 1.4723439442154218
-0.3036950489661003 -0.14902922759223886 1.4765815474945818
-0.3013119133426444 -0.19120264959466932 1.4493742323400323
-0.3013119133426444 -0.19120264959466932 1.4493742323400323
-0.30255624219208593 -0.18948043470306727 1.4512246072163186
-0.2882254668111849 -0.2909192385892117 1.3992513089464416
-0.2882254668111849 -0.2909192385892117 1.3992513089464416
-0.31246011966201537 -0.1614070241060579 1.4689085934053996
-0.3105215143919895 -0.18267321784392368 1.4567738027342612
-0.3086340834008761 -0.2171753335320314 1.4384627412047346
-0.31430136703934464 -0.18528831605416846 1.4542449595406528
-0.3178541836906087 -0.16953998138665805 1.4637752939460602
-0.31831651601215694 -0.17228332786496908 1.461822601965716
-0.3243227916512767 -0.1658329865139358 1.4634068459615632
-0.321701371601071 -0.20197225864682847 1.4488093899861778
-0.32333948272272206 -0.1801175353451256 1.4525763872900375
-0.32333948272272206 -0.1801175353451256 1.4525763872900375
-0.32333948272272206 -0.1801175353451256 1.4525763872900375
-0.327451078220325 -0.1654417338795532 1.4613823940704063
-0.3230882323147723 -0.2109233317551505 1.443730094985964
-0.32693824044335185 -0.20819159942024304 1.444158987009822
-0.32693824044335185 -0.20819159942024304 1.444158987009822
-0.33297859111337547 -0.16270666921140717 1.4582762594479377
-0.31896948136269676 -0.2447724289268045 1.4153845173656117
-0.33198140338388843 -0.1744101422125736 1.4501395879244572
-0.33088238898139877 -0.20210563160973713 1.4466360711097863
-0.3318780608896883 -0.2057345276617048 1.4442380079731822
-0.3379127491440285 -0.20104096028781115 1.4442196863224495
-0.33591877328207564 -0.23072597027947586 1.4341935048305299
-0.33591877328207564 -0.23072597027947586 1.4341935048305299
-0.3464190187312562 -0.2321288427395044 1.4267293112681418
-0.3464190187312562 -0.2321288427395044 1.4267293112681418
-0.35192487389024424 -0.22699030510943802 1.4285785133291342
-0.2480699639101591 -0.16515844400650992 1.4803956334734738
-0.2587766999802487 -0.14627122733392744 1.4935752943656495
-0.2698115098270875 -0.16413781599000843 1.481861990493685
-0.2723326862240503 -0.16169829364579036 1.4830487338138978
-0.2723326862240503 -0.16169829364579036 1.4830487338138978
-0.27052416171525656 -0.1355388368047986 1.5003599162457175
-0.27088162610291855 -0.12806302748142379 1.5048514231164056
-0.28084021569687107 -0.13355355198400043 1.5027555417081315
-0.29272668824805076 -0.13928068372735095 1.4974952025340833
-0.29272668824805076 -0.13928068372735095 1.4974952025340833
-0.30462445008401484 -0.18065180929790142 1.4576561707872266
-0.2921735133487069 -0.13205570888539878 1.5026454889793266
-0.2978807916038222 -0.1385633644734473 1.4954966239709584
-0.30941510810770995 -0.1842557928215536 1.4556570325482427
-0.3160661016303965 -0.22088496528144855 1.436528350128374
-0.3185570711381893 -0.21884610512701688 1.4382120084283125
-0.3176594871116754 -0.21427466475490817 1.44184966155035
-0.3186144968677658 -0.21223793799318358 1.4422081685166706
-0.3227066689509045 -0.171202766214161 1.4611533850344256
-0.33252851006301626 -0.22900562654369835 1.434462158089447
-0.22509859911388455 -0.15833322271746283 1.473650024311368
-0.22657987827114662 -0.15397299046386556 1.4776683415137795
-0.22640399414282766 -0.14460612663854674 1.4809603640985904
-0.2278610130332508 -0.14730393882672688 1.4812109994949345
-0.22864170326646446 -0.1513430581056087 1.4805721584386327
-0.23006032235429805 -0.1574105981902728 1.4784870165195483
-0.23334933222213802 -0.17272447872484015 1.4685364961714962
-0.23593631423186912 -0.17750422616819767 1.4637426562669122
-0.2342107683832656 -0.16687649861398562 1.4739822673129244
-0.2342107683832656 -0.16687649861398562 1.4739822673129244
-0.23645839515225245 -0.1571270743034939 1.4818098677024854
-0.23750889328131125 -0.16559853472531486 1.4775991076359707
-0.24950991472146225 -0.1732166920022174 1.4753732610617944
-0.2523533333550179 -0.15863040620187444 1.4856313231316507
-0.2596891672116196 -0.13593030639401346 1.4979517519338594
-0.2683006343690106 -0.12779594537562816 1.5021458572902968
-0.2858229534244354 -0.1959141885554703 1.4395629623228743
-0.29066173774618775 -0.21042636402443904 1.4257953114499025
-0.28607419325494604 -0.19429490265858998 1.4420412425534006
-0.28607419325494604 -0.19429490265858998 1.4420412425534006
-0.2729395490400341 -0.14433953505722458 1.4953760721486948
-0.27660924795458075 -0.1503079309832804 1.4917251341920243
-0.27660924795458075 -0.1503079309832804 1.4917251341920243
-0.2754834993756628 -0.13365899214508772 1.500415313492232
-0.29122348816131427 -0.19313502146227 1.4466979499329067
-0.2955744176057738 -0.21097973455825814 1.4324324689180494
-0.28032581916159566 -0.15477797210193514 1.487785337769509
-0.2917566852177147 -0.18253295731152044 1.455745293414807
-0.299264414920487 -0.22160038030924803 1.4291535860789901
-0.2970658742283149 -0.19820294715131764 1.4415020745125502
-0.30034882113054145 -0.22026283076024444 1.4308688768308997
-0.29759266645964344 -0.19525940772066355 1.445883903666036
-0.2994844771623382 -0.2081960910182987 1.4397471878732904
-0.2994844771623382 -0.2081960910182987 1.4397471878732904
-0.2906813925810389 -0.1590245573873149 1.4804713504050773
-0.30122184267867436 -0.20406221191617732 1.4419855407325812
-0.30122184267867436 -0.20406221191617732 1.4419855407325812
-0.30248724052385406 -0.2170612491693972 1.4352536653548489
-0.2911683618450193 -0.1319680420414014 1.5018163899759016
-0.3054343310339448 -0.2077644280306156 1.4430098655927015
-0.3018516195624862 -0.15857300754943526 1.4736331538017724
-0.3096555674783336 -0.1840132255478646 1.4577971721823435
-0.3121387938926245 -0.20902021432937423 1.4449791392563527
-0.31867920290676655 -0.2360828210600899 1.4258049179493242
-0.31867920290676655 -0.2360828210600899 1.4258049179493242
-0.31129191746541174 -0.16841517562374073 1.4668019037226274
-0.31323409393632196 -0.18099548948757765 1.4585930379691148
-0.3118042335061342 -0.16338207459433518 1.4699008926613548
-0.32116568099356535 -0.2328773493724189 1.4283400217512496
-0.31646060347685273 -0.17057837374160575 1.465051445118595
-0.3265523890801441 -0.229890048075686 1.431270106904883
-0.23510115109777227 -0.15296048180892388 1.4825614624045123
-0.24371990530658214 -0.172886918856161 1.4741052322305173
-0.24371990530658214 -0.172886918856161 1.4741052322305173
-0.2695098828406488 -0.15468882690252864 1.4886094046889056
-0.28147810231483367 -0.14084065786948205 1.4965575801065343
-0.28912100488259745 -0.1354729459123406 1.5014761381343755
