# 3D point list with one line of data per point:
#   POINT3D_ID, X, Y, Z, R, G, B, ERROR, TRACK[] as (IMAGE_ID, POINT2D_IDX)
198 0.01071363128721714 -0.13218890130519867 2.7037293910980225 255 255 255 1.0 25 0 26 0
199 0.011837733909487724 -0.028799476101994514 2.7045607566833496 255 255 255 1.0 25 0 26 0
200 0.014713187702000141 0.08584421128034592 2.6938865184783936 255 255 255 1.0 25 0 26 0
201 0.014722980558872223 -0.11721350997686386 2.715977668762207 255 255 255 1.0 25 0 26 0
202 0.0190180242061615 -0.08143360167741776 2.711555242538452 255 255 255 1.0 25 0 26 0
203 0.0190180242061615 -0.08143360167741776 2.711555242538452 255 255 255 1.0 25 0 26 0
204 0.031595200300216675 0.014626744203269482 2.7002453804016113 255 255 255 1.0 25 0 26 0
205 0.034687355160713196 -0.12345267832279205 2.7203404903411865 255 255 255 1.0 25 0 26 0
206 0.03884192556142807 -0.08115801215171814 2.7094180583953857 255 255 255 1.0 25 0 26 0
207 0.04880467802286148 -0.052383191883563995 2.7069501876831055 255 255 255 1.0 25 0 26 0
208 0.051664430648088455 -0.1857876181602478 2.8434369564056396 255 255 255 1.0 25 0 26 0
209 0.05396067723631859 -0.14554716646671295 2.726274013519287 255 255 255 1.0 25 0 26 0
210 0.059925377368927 -0.11335546523332596 2.7178537845611572 255 255 255 1.0 25 0 26 0
211 0.059925377368927 -0.11335546523332596 2.7178537845611572 255 255 255 1.0 25 0 26 0
212 0.06192203238606453 -0.09745412319898605 2.715980052947998 255 255 255 1.0 25 0 26 0
213 0.06324265152215958 -0.12701256573200226 2.7207696437835693 255 255 255 1.0 25 0 26 0
214 0.06324265152215958 -0.12701256573200226 2.7207696437835693 255 255 255 1.0 25 0 26 0
215 0.06741070747375488 -0.026652315631508827 2.709176778793335 255 255 255 1.0 25 0 26 0
216 0.07531671971082687 -0.10785326361656189 2.7171034812927246 255 255 255 1.0 25 0 26 0
217 0.07707812637090683 0.18100440502166748 2.7312564849853516 255 255 255 1.0 25 0 26 0
218 0.07899285852909088 0.054035600274801254 2.7104289531707764 255 255 255 1.0 25 0 26 0
219 0.08428116887807846 -0.1210857480764389 2.7240447998046875 255 255 255 1.0 25 0 26 0
220 0.08428116887807846 -0.1210857480764389 2.7240447998046875 255 255 255 1.0 25 0 26 0
221 0.08428116887807846 -0.1210857480764389 2.7240447998046875 255 255 255 1.0 25 0 26 0
222 0.0879269391298294 0.02972177416086197 2.712432861328125 255 255 255 1.0 25 0 26 0
223 0.0879269391298294 0.02972177416086197 2.712432861328125 255 255 255 1.0 25 0 26 0
224 0.09039868414402008 -0.02808033488690853 2.713524580001831 255 255 255 1.0 25 0 26 0
225 0.1101946085691452 -0.026418766006827354 2.718096971511841 255 255 255 1.0 25 0 26 0
226 0.12713217735290527 -0.11256038397550583 2.7372825145721436 255 255 255 1.0 25 0 26 0
227 0.12713217735290527 -0.11256038397550583 2.7372825145721436 255 255 255 1.0 25 0 26 0
228 0.13074566423892975 -0.06483235955238342 2.7290875911712646 255 255 255 1.0 25 0 26 0
229 0.15167120099067688 -0.11648966372013092 2.746361255645752 255 255 255 1.0 25 0 26 0
230 -0.3342015993632331 -0.283582427851197 2.7670499207761097 255 255 255 1.0 26 0 8 0
231 -0.3342015993632331 -0.283582427851197 2.7670499207761097 255 255 255 1.0 26 0 8 0
232 -0.3182972985942913 -0.5524258547250934 2.7678303026123245 255 255 255 1.0 26 0 8 0
233 -0.31479744672526816 -0.51010260561455 2.7660832819113894 255 255 255 1.0 26 0 8 0
234 -0.2970589302202478 -0.6285056817136901 2.7689371731790127 255 255 255 1.0 26 0 8 0
235 -0.2992381480706357 -0.5100081738184437 2.7817190060893036 255 255 255 1.0 26 0 8 0
236 -0.30727081272325363 -0.2910253802179059 2.7747171561987987 255 255 255 1.0 26 0 8 0
237 -0.2631913183776032 -0.4256835866142714 2.7806292873939875 255 255 255 1.0 26 0 8 0
238 -0.26586377266097017 -0.3647054671195258 2.7912884995559777 255 255 255 1.0 26 0 8 0
239 -0.22885735223505901 -0.2838622296654454 2.7941038416128787 255 255 255 1.0 26 0 8 0
240 -0.22885735223505901 -0.2838622296654454 2.7941038416128787 255 255 255 1.0 26 0 8 0
241 -0.22380308780243605 -0.32861436063977195 2.8046390362125537 255 255 255 1.0 26 0 8 0
242 -0.22073070770772782 -0.3115924378285073 2.800863717738996 255 255 255 1.0 26 0 8 0
243 -0.2126948654149874 -0.19763341525838501 2.8065072373883613 255 255 255 1.0 26 0 8 0
244 -0.20102177174281108 -0.26184510114618603 2.8120681287510036 255 255 255 1.0 26 0 8 0
245 -0.18686889315322008 -0.28748486629007514 2.8254879408123164 255 255 255 1.0 26 0 8 0
246 -0.17708889873969624 -0.17911694545970855 2.8006266373705904 255 255 255 1.0 26 0 8 0
247 -0.17267749075031488 -0.4487469804699069 2.8683555822243734 255 255 255 1.0 26 0 8 0
248 -0.0830157968061863 -0.029550871061723348 2.760091861890567 255 255 255 1.0 26 0 8 0
249 -0.07675582377419819 -0.04180133532167859 2.757263339928323 255 255 255 1.0 26 0 8 0
250 -0.06315925203530108 0.002644838712786557 2.7440076966557165 255 255 255 1.0 26 0 8 0
251 -0.030964807167710936 0.08748927718333238 2.7216646872711854 255 255 255 1.0 26 0 8 0
252 -0.030964807167710936 0.08748927718333238 2.7216646872711854 255 255 255 1.0 26 0 8 0
253 -0.022778181395591596 -0.027147179104043493 2.7481957249118882 255 255 255 1.0 26 0 8 0
254 -0.021707077708414787 -0.01158192694390831 2.743847928390969 255 255 255 1.0 26 0 8 0
255 -0.018808132721490345 -0.0855768569104797 2.7606176447778856 255 255 255 1.0 26 0 8 0
256 -0.006455155486283541 0.005163244912737029 2.740993123816428 255 255 255 1.0 26 0 8 0
257 -0.005837232902171202 -0.04422771150149232 2.7490922914754217 255 255 255 1.0 26 0 8 0
258 0.044924017493675 -0.12594995684837687 2.7842068020290953 255 255 255 1.0 26 0 8 0
259 -0.29101519192381836 -0.6641221310225823 2.6240546061676224 255 255 255 1.0 25 0 8 0
260 -0.31608811793022196 -0.4003801388684851 2.689495555547471 255 255 255 1.0 25 0 8 0
261 -0.28853658569148993 -0.5702122476908252 2.647815364066917 255 255 255 1.0 25 0 8 0
262 -0.2871204527359027 -0.5242694688111494 2.653011276443724 255 255 255 1.0 25 0 8 0
263 -0.2871204527359027 -0.5242694688111494 2.653011276443724 255 255 255 1.0 25 0 8 0
264 -0.27971987484565625 -0.34169424538004617 2.66760939096536 255 255 255 1.0 25 0 8 0
265 -0.25757606011759554 -0.5263409727222513 2.657881884330108 255 255 255 1.0 25 0 8 0
266 -0.2570215585733396 -0.5152459693745602 2.65441772431253 255 255 255 1.0 25 0 8 0
267 -0.25201231587165684 -0.5315120874585877 2.6640309658476022 255 255 255 1.0 25 0 8 0
268 -0.2417756765620689 -0.44086716245107643 2.669107226769376 255 255 255 1.0 25 0 8 0
269 -0.21623792821642995 -0.556386844285861 2.638773870553232 255 255 255 1.0 25 0 8 0
270 -0.21623792821642995 -0.556386844285861 2.638773870553232 255 255 255 1.0 25 0 8 0
271 -0.22437258873013058 -0.4843495216725749 2.674299387573054 255 255 255 1.0 25 0 8 0
272 -0.2164501555522202 -0.35223211693072204 2.677143146811125 255 255 255 1.0 25 0 8 0
273 -0.2164501555522202 -0.35223211693072204 2.677143146811125 255 255 255 1.0 25 0 8 0
274 -0.21822541511637142 -0.2978508174995403 2.6847557182828625 255 255 255 1.0 25 0 8 0
275 -0.2159904900729969 -0.22405503580535777 2.694332143242838 255 255 255 1.0 25 0 8 0
276 -0.21141462710189607 -0.168985667901631 2.679983590442386 255 255 255 1.0 25 0 8 0
277 -0.17197291460166386 -0.6159439778032584 2.7051616902894287 255 255 255 1.0 25 0 8 0
278 -0.17197291460166386 -0.6159439778032584 2.7051616902894287 255 255 255 1.0 25 0 8 0
279 -0.19309100578719393 0.1582101416186936 2.740703745571624 255 255 255 1.0 25 0 8 0
280 -0.17202569988435795 -0.13201964216157402 2.6763370970578713 255 255 255 1.0 25 0 8 0
281 -0.17132337860188374 -0.2420292844362151 2.6991314920607885 255 255 255 1.0 25 0 8 0
282 -0.1695712075498556 -0.16971229867980686 2.6799458172198007 255 255 255 1.0 25 0 8 0
283 -0.16036952746139513 -0.36858162656063875 2.716971760098387 255 255 255 1.0 25 0 8 0
284 -0.1407212004923967 -0.6044801852122744 2.7191715121031033 255 255 255 1.0 25 0 8 0
285 -0.12522087821156294 -0.12271193264012095 2.681481393187048 255 255 255 1.0 25 0 8 0
286 -0.11720619189899677 -0.12385164811575959 2.6809508191251794 255 255 255 1.0 25 0 8 0
287 -0.11714359963949197 -0.04602720844905055 2.67575475084032 255 255 255 1.0 25 0 8 0
288 -0.10867424981891119 0.0010588034589789318 2.6554875814216183 255 255 255 1.0 25 0 8 0
289 -0.10867424981891119 0.0010588034589789318 2.6554875814216183 255 255 255 1.0 25 0 8 0
290 -0.10306804619902041 -0.008139928533936337 2.657332899849439 255 255 255 1.0 25 0 8 0
291 -0.0979370299809958 -0.11885257702450797 2.6771687888011573 255 255 255 1.0 25 0 8 0
292 -0.08597836126132408 0.037655340328205895 2.6407619327861456 255 255 255 1.0 25 0 8 0
293 -0.08762266839421405 -0.10277969233413363 2.6690049896120973 255 255 255 1.0 25 0 8 0
294 -0.05235894366746033 -0.00094424180650642 2.6453375226992413 255 255 255 1.0 25 0 8 0
295 -0.05235894366746033 -0.00094424180650642 2.6453375226992413 255 255 255 1.0 25 0 8 0
296 -0.03217809077395623 -0.1386973439647109 2.6722051457749396 255 255 255 1.0 25 0 8 0
297 -0.01513016510345856 -0.09824260300765393 2.656893693855169 255 255 255 1.0 25 0 8 0
298 0.015520779747044348 -0.18569663548085283 2.683508809426777 255 255 255 1.0 25 0 8 0
299 0.02621085682967277 -0.0729286938685169 2.655672661929359 255 255 255 1.0 25 0 8 0
300 0.03570608878828291 -0.04921713702325684 2.6560794901008276 255 255 255 1.0 25 0 8 0
301 0.06695053693488652 -0.11195887011116523 2.665206521815224 255 255 255 1.0 25 0 8 0
302 0.08381541379778992 -0.06324852140484892 2.6676164093869725 255 255 255 1.0 25 0 8 0
303 -0.3395973104828389 -0.41189382554182963 2.6551936669113503 255 255 255 1.0 24 0 25 0
304 -0.3332382099159788 -0.33171361295769713 2.657033819549294 255 255 255 1.0 24 0 25 0
305 -0.31402738951384773 -0.41215889994027355 2.658387446054 255 255 255 1.0 24 0 25 0
306 -0.288112868771182 -0.6745566206208786 2.6127370134290655 255 255 255 1.0 24 0 25 0
307 -0.29497536551548975 -0.33895933989103916 2.6568058580633434 255 255 255 1.0 24 0 25 0
308 -0.29497536551548975 -0.33895933989103916 2.6568058580633434 255 255 255 1.0 24 0 25 0
309 -0.2847635155038062 -0.5936017056148218 2.6322322366208493 255 255 255 1.0 24 0 25 0
310 -0.28776677415101587 -0.09117058429718397 2.634215573615098 255 255 255 1.0 24 0 25 0
311 -0.2815589507043373 -0.34499434545036217 2.6578664074007934 255 255 255 1.0 24 0 25 0
312 -0.27153622636700736 -0.14998033992195875 2.643709768103822 255 255 255 1.0 24 0 25 0
313 -0.2612660036666232 -0.44010115498705693 2.657049914281931 255 255 255 1.0 24 0 25 0
314 -0.24813634437401272 -0.5945126879741298 2.6319039551253773 255 255 255 1.0 24 0 25 0
315 -0.25434617407871996 -0.49725884054502223 2.6482223552622126 255 255 255 1.0 24 0 25 0
316 -0.25434617407871996 -0.49725884054502223 2.6482223552622126 255 255 255 1.0 24 0 25 0
317 -0.2515588311461032 -0.21774970595582496 2.651728798260371 255 255 255 1.0 24 0 25 0
318 -0.24801765743319637 -0.307548654976452 2.6578944300059137 255 255 255 1.0 24 0 25 0
319 -0.24801765743319637 -0.307548654976452 2.6578944300059137 255 255 255 1.0 24 0 25 0
320 -0.23301617745657213 -0.4969308664879742 2.649122551614354 255 255 255 1.0 24 0 25 0
321 -0.23352618174788908 -0.18102336726530768 2.6505114884689234 255 255 255 1.0 24 0 25 0
322 -0.18318437579639854 -0.23199532960815955 2.6568249935591464 255 255 255 1.0 24 0 25 0
323 -0.16397593994995852 -0.1778399347267654 2.6531204543656965 255 255 255 1.0 24 0 25 0
324 -0.14622746274539958 0.05926002503441961 2.602812149979076 255 255 255 1.0 24 0 25 0
325 -0.14044270381114624 0.04378333367269568 2.611677274565789 255 255 255 1.0 24 0 25 0
326 -0.12307973984332461 -0.03224164250152716 2.6349456886697626 255 255 255 1.0 24 0 25 0
327 -0.11935039858396582 -0.08907994556739465 2.64031132196453 255 255 255 1.0 24 0 25 0
328 -0.11706827540597713 0.018018480652025767 2.6161721318886566 255 255 255 1.0 24 0 25 0
329 -0.11706827540597713 0.018018480652025767 2.6161721318886566 255 255 255 1.0 24 0 25 0
330 -0.11354994595240148 0.009047379335800982 2.6200945184212414 255 255 255 1.0 24 0 25 0
331 -0.11354994595240148 0.009047379335800982 2.6200945184212414 255 255 255 1.0 24 0 25 0
332 -0.08587012899217855 -0.2009325436777784 2.6601879342655255 255 255 255 1.0 24 0 25 0
333 -0.08520669191491663 -0.1105202150736199 2.645854829046189 255 255 255 1.0 24 0 25 0
334 -0.03614751071285523 -0.15715898644329185 2.6543416010257475 255 255 255 1.0 24 0 25 0
335 -0.023921348776031973 -0.08725344938173789 2.6406079812730434 255 255 255 1.0 24 0 25 0
336 -0.020485157110092172 -0.13218743215526796 2.6541168736223777 255 255 255 1.0 24 0 25 0
337 -0.012269326901309222 0.019325334153719488 2.627549255303552 255 255 255 1.0 24 0 25 0
338 0.007017720137842396 -0.023233563137374298 2.6375464730590155 255 255 255 1.0 24 0 25 0
339 0.02284781362586716 -0.07302677185631577 2.6478681307582335 255 255 255 1.0 24 0 25 0
340 0.045632139419323044 -0.09456151682008707 2.6530203619182346 255 255 255 1.0 24 0 25 0
341 0.045632139419323044 -0.09456151682008707 2.6530203619182346 255 255 255 1.0 24 0 25 0
342 0.0505623957549655 -0.1026367728912608 2.6538390600617032 255 255 255 1.0 24 0 25 0
343 0.0505623957549655 -0.1026367728912608 2.6538390600617032 255 255 255 1.0 24 0 25 0
344 -0.3030021804181376 -0.62662848697897 2.648807239046486 255 255 255 1.0 24 0 8 0
345 -0.2999127985226186 -0.5939784488065695 2.658084293367155 255 255 255 1.0 24 0 8 0
346 -0.29709748891834215 -0.6034635899224212 2.6662542656027517 255 255 255 1.0 24 0 8 0
347 -0.2924318131516839 -0.5643864467162965 2.6879574364149748 255 255 255 1.0 24 0 8 0
348 -0.2908779680173298 -0.58651272058954 2.701146636995118 255 255 255 1.0 24 0 8 0
349 -0.28870745231702727 -0.5057075710538227 2.6886021517490044 255 255 255 1.0 24 0 8 0
350 -0.3024280042670053 -0.35304168481747983 2.713494494047772 255 255 255 1.0 24 0 8 0
351 -0.2823288348091233 -0.5294906386582588 2.6939292098445766 255 255 255 1.0 24 0 8 0
352 -0.2823288348091233 -0.5294906386582588 2.6939292098445766 255 255 255 1.0 24 0 8 0
353 -0.2903783902146173 -0.3042225966214311 2.6942355081195917 255 255 255 1.0 24 0 8 0
354 -0.28663112003639907 -0.3720066979731371 2.7348440496529594 255 255 255 1.0 24 0 8 0
355 -0.28019330987763047 -0.37214181348833536 2.736403539455754 255 255 255 1.0 24 0 8 0
356 -0.2765088612463923 -0.3109532532252841 2.706924744832238 255 255 255 1.0 24 0 8 0
357 -0.2685121036017202 -0.31410835740104076 2.709697400135757 255 255 255 1.0 24 0 8 0
358 -0.25064668803025647 -0.4736613512723222 2.7088582708889772 255 255 255 1.0 24 0 8 0
359 -0.25813492505790786 -0.343258739905309 2.7129118046309126 255 255 255 1.0 24 0 8 0
360 -0.2581820696215456 -0.3576223543146625 2.721539472686928 255 255 255 1.0 24 0 8 0
361 -0.2581820696215456 -0.3576223543146625 2.721539472686928 255 255 255 1.0 24 0 8 0
362 -0.28398163142550914 -0.13362906907198308 2.8209811929860584 255 255 255 1.0 24 0 8 0
363 -0.25664219948637124 -0.3619443130927633 2.7296130260055604 255 255 255 1.0 24 0 8 0
364 -0.2790586577545888 -0.11098884050124681 2.8153468601062457 255 255 255 1.0 24 0 8 0
365 -0.2790586577545888 -0.11098884050124681 2.8153468601062457 255 255 255 1.0 24 0 8 0
366 -0.27513073830582246 -0.0683145653434344 2.7983167311826587 255 255 255 1.0 24 0 8 0
367 -0.24309398622182987 -0.32175514741584677 2.7263128116109963 255 255 255 1.0 24 0 8 0
368 -0.23894392520232496 -0.3102147991659029 2.7237061635551854 255 255 255 1.0 24 0 8 0
369 -0.25383110985060925 -0.16733147589235822 2.793458673715513 255 255 255 1.0 24 0 8 0
370 -0.22397107462227173 -0.3013390323109896 2.7480495356783323 255 255 255 1.0 24 0 8 0
371 -0.22868481904167662 -0.16076320121056636 2.7813685262578765 255 255 255 1.0 24 0 8 0
372 -0.2213299756321295 -0.08925058695615479 2.7434896816550998 255 255 255 1.0 24 0 8 0
373 -0.22563454883094106 -0.5896636795980719 2.90099723898703 255 255 255 1.0 24 0 8 0
374 -0.22702765761936378 -0.5302314491895953 2.899437337998465 255 255 255 1.0 24 0 8 0
375 -0.21397503027226744 -0.15939216905996711 2.773338430302231 255 255 255 1.0 24 0 8 0
376 -0.2229635447635713 -0.5609578473368304 2.904960008894645 255 255 255 1.0 24 0 8 0
377 -0.22093924992886085 -0.5327671080396282 2.900974983360017 255 255 255 1.0 24 0 8 0
378 -0.20589676430310447 -0.13320717847979113 2.749891211791208 255 255 255 1.0 24 0 8 0
379 -0.19998460279187963 -0.09204587784163837 2.7441456860840723 255 255 255 1.0 24 0 8 0
380 -0.1905002916175056 -0.13791725009275935 2.761490229933428 255 255 255 1.0 24 0 8 0
381 -0.18743642929500687 -0.12598567147361914 2.7519150243864936 255 255 255 1.0 24 0 8 0
382 -0.2019875775757416 -0.32527392066291616 2.8825382223916654 255 255 255 1.0 24 0 8 0
383 -0.1973613201470785 -0.579070072296212 2.9169830160632824 255 255 255 1.0 24 0 8 0
384 -0.18100952593259867 -0.141623074528126 2.764371916243166 255 255 255 1.0 24 0 8 0
385 -0.20253055855909508 -0.4906754414663578 2.9413119850127334 255 255 255 1.0 24 0 8 0
386 -0.1840030596551546 -0.1525020827036476 2.7838664272574842 255 255 255 1.0 24 0 8 0
387 -0.189905145915658 -0.21203782596447596 2.848927724138039 255 255 255 1.0 24 0 8 0
388 -0.17945149799176943 -0.16549030292314784 2.7877828515983487 255 255 255 1.0 24 0 8 0
389 -0.1874662678302557 -0.2577881624239283 2.864117297032739 255 255 255 1.0 24 0 8 0
390 -0.14494862104790254 -0.03538590489574179 2.7521443650890944 255 255 255 1.0 24 0 8 0
391 -0.14615006208260053 -0.08722904777393917 2.76866145678092 255 255 255 1.0 24 0 8 0
392 -0.1442162611096785 -0.1049312474294045 2.7796223852961552 255 255 255 1.0 24 0 8 0
393 -0.1442162611096785 -0.1049312474294045 2.7796223852961552 255 255 255 1.0 24 0 8 0
394 -0.1411922296469161 -0.12082087794149014 2.7813124764573307 255 255 255 1.0 24 0 8 0
395 -0.1295794495768411 -0.09108746568745622 2.76925676796311 255 255 255 1.0 24 0 8 0
396 -0.1295794495768411 -0.09108746568745622 2.76925676796311 255 255 255 1.0 24 0 8 0
397 -0.11690994793530742 -0.05619538392388185 2.741285950355054 255 255 255 1.0 24 0 8 0
398 -0.09059495315608064 0.06667555703702002 2.664936557919763 255 255 255 1.0 24 0 8 0
399 -0.09564416773603136 -7.452984538020971e-05 2.719165485757902 255 255 255 1.0 24 0 8 0
400 -0.08584833279983049 0.02704260413655223 2.66096071237983 255 255 255 1.0 24 0 8 0
401 -0.08648553214919065 -0.04773702465249007 2.707312991461591 255 255 255 1.0 24 0 8 0
402 -0.08897687092399219 -0.08783153762993454 2.743518621376577 255 255 255 1.0 24 0 8 0
403 -0.07035977533690224 -0.05211196155813228 2.6983562714999976 255 255 255 1.0 24 0 8 0
404 -0.06461795026509488 -0.021461075822570504 2.6857816368664467 255 255 255 1.0 24 0 8 0
405 -0.0526333250209354 0.03283665869231261 2.637476261126491 255 255 255 1.0 24 0 8 0
406 -0.0526333250209354 0.03283665869231261 2.637476261126491 255 255 255 1.0 24 0 8 0
407 -0.051472324545848956 0.046844876255456726 2.6352990445799676 255 255 255 1.0 24 0 8 0
408 -0.0661246991755111 -0.08976831320501259 2.7253701720773185 255 255 255 1.0 24 0 8 0
409 -0.05929461328301655 -0.05865080859696147 2.6935583826932326 255 255 255 1.0 24 0 8 0
410 -0.04878665488672079 0.01081606617748819 2.6413273252456593 255 255 255 1.0 24 0 8 0
411 -0.053160542905460406 -0.07486323087268199 2.690660286499022 255 255 255 1.0 24 0 8 0
412 -0.04497713920201638 -0.08910820139383825 2.6653056181593477 255 255 255 1.0 24 0 8 0
413 -0.035806818227215355 -0.03790452678800161 2.6687281030051584 255 255 255 1.0 24 0 8 0
414 -0.04155557811363717 -0.10127064268876428 2.722651271165482 255 255 255 1.0 24 0 8 0
415 -0.04155557811363717 -0.10127064268876428 2.722651271165482 255 255 255 1.0 24 0 8 0
416 -0.02371338018882952 0.01276727702629791 2.641323641125265 255 255 255 1.0 24 0 8 0
417 -0.026069330794745132 -0.0022764343126972916 2.655264930560192 255 255 255 1.0 24 0 8 0
418 -0.03782470542803098 -0.10967773841473703 2.733159143830049 255 255 255 1.0 24 0 8 0
419 -0.02497150981876211 -0.07610289552677706 2.687863348217985 255 255 255 1.0 24 0 8 0
420 -0.016255979422222913 -0.00042356255149662457 2.644487027763427 255 255 255 1.0 24 0 8 0
421 -0.02087494913382029 -0.09166485360118494 2.7013485937059514 255 255 255 1.0 24 0 8 0
422 -0.002576443008903242 0.024661901086007087 2.634250751203271 255 255 255 1.0 24 0 8 0
423 -0.008390953976310156 -0.07911675040396418 2.6825031893726594 255 255 255 1.0 24 0 8 0
424 0.008473655338694873 -0.0019274497632128043 2.6462648281968364 255 255 255 1.0 24 0 8 0
425 0.014274873489349662 0.027663400815493084 2.6440020203991024 255 255 255 1.0 24 0 8 0
426 0.005768321291973164 -0.0932650702004999 2.6929700327368438 255 255 255 1.0 24 0 8 0
427 0.007725993887851421 -0.13630844581307447 2.7193234516984943 255 255 255 1.0 24 0 8 0
428 0.0017973520645529777 -0.13378676662163783 2.7623225759552015 255 255 255 1.0 24 0 8 0
429 0.012275330293266695 -0.12131683054235592 2.7128026983700364 255 255 255 1.0 24 0 8 0
430 0.01914883388378164 -0.09096736006125213 2.6947012079177295 255 255 255 1.0 24 0 8 0
431 0.01914883388378164 -0.09096736006125213 2.6947012079177295 255 255 255 1.0 24 0 8 0
432 0.030355666854273655 -0.1214741341365512 2.730553030907689 255 255 255 1.0 24 0 8 0
433 0.03747985324032132 -0.08965663698120528 2.6990818390511233 255 255 255 1.0 24 0 8 0
434 0.0582436862729716 -0.0983164943162638 2.720687892216757 255 255 255 1.0 24 0 8 0
435 0.04751417391990396 -0.13518414448609276 2.8375882754426702 255 255 255 1.0 24 0 8 0
436 0.0876973114762435 0.0354818422815091 2.7208870218325765 255 255 255 1.0 24 0 8 0
437 0.07677783234250606 -0.10509811307847065 2.767654974605953 255 255 255 1.0 24 0 8 0
438 -0.251906508812792 -0.17583595934711596 2.7829334797286154 255 255 255 1.0 24 0 26 0
439 -0.21706651279840508 -0.6171999643184041 2.8059548009507598 255 255 255 1.0 24 0 26 0
440 -0.21768750929473996 -0.5153235867936081 2.8133391902824085 255 255 255 1.0 24 0 26 0
441 -0.20422930170113565 -0.42408014704271174 2.821993545536802 255 255 255 1.0 24 0 26 0
442 -0.20708054182495864 -0.3120769304825904 2.801912150135797 255 255 255 1.0 24 0 26 0
443 -0.1857435208462152 -0.5364652631403936 2.818235449697612 255 255 255 1.0 24 0 26 0
444 -0.17616467559469912 -0.19030127206012903 2.795019631061511 255 255 255 1.0 24 0 26 0
445 -0.13198028678163193 -0.06760416423246692 2.7672712795658274 255 255 255 1.0 24 0 26 0
446 -0.28891205311003393 -0.6546117684054471 2.695060690886031 255 255 255 1.0 27 0 8 0
447 -0.28907057132397634 -0.6219385839546245 2.703923678052214 255 255 255 1.0 27 0 8 0
448 -0.28874141940672804 -0.5459545821347667 2.7205145637501618 255 255 255 1.0 27 0 8 0
449 -0.281916408100278 -0.5029643527433795 2.7225978247554754 255 255 255 1.0 27 0 8 0
450 -0.2696927049745901 -0.6457236288510703 2.7134766447034595 255 255 255 1.0 27 0 8 0
451 -0.2791373305205932 -0.4904484910349215 2.719489966439275 255 255 255 1.0 27 0 8 0
452 -0.26757581403495534 -0.5898411797229969 2.7364415704613516 255 255 255 1.0 27 0 8 0
453 -0.2688469982427725 -0.5390987931618118 2.732013525185667 255 255 255 1.0 27 0 8 0
454 -0.2610916762413044 -0.520068669368422 2.7379093949574727 255 255 255 1.0 27 0 8 0
455 -0.25276487325078845 -0.4559282988413894 2.7259061568425325 255 255 255 1.0 27 0 8 0
456 -0.24993154544569365 -0.4836999130253959 2.737577762634921 255 255 255 1.0 27 0 8 0
457 -0.24829618658558256 -0.44157221967495297 2.731979149030518 255 255 255 1.0 27 0 8 0
458 -0.2493380241304756 -0.2990877508229858 2.7507567675128546 255 255 255 1.0 27 0 8 0
459 -0.23106778914941636 -0.4779887821320655 2.75335553095935 255 255 255 1.0 27 0 8 0
460 -0.2306027890020735 -0.4454797352220902 2.749540188840704 255 255 255 1.0 27 0 8 0
461 -0.22283866476463615 -0.3287158103072787 2.748328153941863 255 255 255 1.0 27 0 8 0
462 -0.2217704446101631 -0.308693154846536 2.748632607891022 255 255 255 1.0 27 0 8 0
463 -0.21241387732837158 -0.32241971048587875 2.7574145122491407 255 255 255 1.0 27 0 8 0
464 -0.20057528175321265 -0.5449134380031428 2.7848106963504384 255 255 255 1.0 27 0 8 0
465 -0.20210591594120647 -0.2734082509080808 2.7728438810164233 255 255 255 1.0 27 0 8 0
466 -0.19234635332115219 -0.5625734577026571 2.7779950755366567 255 255 255 1.0 27 0 8 0
467 -0.1823042680735383 -0.5803400954337822 2.775892213657649 255 255 255 1.0 27 0 8 0
468 -0.1823042680735383 -0.5803400954337822 2.775892213657649 255 255 255 1.0 27 0 8 0
469 -0.18639129736549187 -0.3192037326119709 2.77122358473224 255 255 255 1.0 27 0 8 0
470 -0.18435053757743153 -0.29954743180121723 2.7765687434057664 255 255 255 1.0 27 0 8 0
471 -0.17866964787956194 -0.054487501194532294 2.7483955192800926 255 255 255 1.0 27 0 8 0
472 -0.17561191722966019 -0.4167873463871677 2.810189665985721 255 255 255 1.0 27 0 8 0
473 -0.17652452285234546 -0.1958357651710996 2.7681771311939176 255 255 255 1.0 27 0 8 0
474 -0.15286840348327943 -0.5975034980717717 2.7780085645927337 255 255 255 1.0 27 0 8 0
475 -0.15176226254299635 -0.615120275949851 2.7737370724815174 255 255 255 1.0 27 0 8 0
476 -0.16227715047048785 -0.3097468361820505 2.800998229363897 255 255 255 1.0 27 0 8 0
477 -0.15559200436253814 -0.18746577528121017 2.767447081931941 255 255 255 1.0 27 0 8 0
478 -0.14521697188908728 -0.1965614902965162 2.768910935586008 255 255 255 1.0 27 0 8 0
479 -0.14049585073256413 -0.2361726306013132 2.789958434985552 255 255 255 1.0 27 0 8 0
480 -0.06479791838683899 -0.07534664740848533 2.7216159922294096 255 255 255 1.0 27 0 8 0
481 -0.041566074697559935 -0.033202369752227505 2.6999677616472724 255 255 255 1.0 27 0 8 0
482 -0.041566074697559935 -0.033202369752227505 2.6999677616472724 255 255 255 1.0 27 0 8 0
483 -0.038910043179932685 -0.08202874814088351 2.798444758540947 255 255 255 1.0 27 0 8 0
484 -0.010781479188093775 -0.10892163681376832 2.7086792182555843 255 255 255 1.0 27 0 8 0
485 -0.008889844930809352 -0.20010038750112963 2.7704987986111855 255 255 255 1.0 27 0 8 0
486 0.0011724232913765864 0.013784429738404144 2.691063151156856 255 255 255 1.0 27 0 8 0
487 0.04309909554161704 0.01922675738399485 2.6941703838185087 255 255 255 1.0 27 0 8 0
488 0.130275522226965 -0.07409443502698236 2.732279976497122 255 255 255 1.0 27 0 8 0
489 0.14499911641869714 -0.010807112190971725 2.7453222302133993 255 255 255 1.0 27 0 8 0
490 -0.300515736052556 -0.5471623719799689 2.7170870509304166 255 255 255 1.0 24 0 27 0
491 -0.31001861534377617 -0.27772883095976736 2.740331433997423 255 255 255 1.0 24 0 27 0
492 -0.2897499674172048 -0.5363991628404958 2.7228919993400753 255 255 255 1.0 24 0 27 0
493 -0.27999754740549654 -0.31979210300350724 2.741713210256511 255 255 255 1.0 24 0 27 0
494 -0.2344756009012284 -0.2603067959556098 2.762016323206481 255 255 255 1.0 24 0 27 0
495 -0.21921421801616056 -0.28663287654703823 2.7591382650017593 255 255 255 1.0 24 0 27 0
496 -0.21757025661708124 -0.30546770005315405 2.7585620228080203 255 255 255 1.0 24 0 27 0
497 -0.21757025661708124 -0.30546770005315405 2.7585620228080203 255 255 255 1.0 24 0 27 0
498 -0.21290708912107442 -0.34743335871434533 2.768022133260517 255 255 255 1.0 24 0 27 0
499 -0.20979610319934064 -0.33116648494631884 2.7645812460451435 255 255 255 1.0 24 0 27 0
500 -0.20979610319934064 -0.33116648494631884 2.7645812460451435 255 255 255 1.0 24 0 27 0
501 -0.2046285023136306 -0.3006118163314943 2.7652783135031993 255 255 255 1.0 24 0 27 0
502 -0.18221546042174994 -0.0902700708752602 2.7427290919850775 255 255 255 1.0 24 0 27 0
503 -0.16918847387922198 -0.06221612757667375 2.7355087931995596 255 255 255 1.0 24 0 27 0
504 -0.16260632013608523 -0.15473675963895012 2.7524124667016605 255 255 255 1.0 24 0 27 0
505 -0.14927346702083716 -0.1829261621632577 2.76742703603043 255 255 255 1.0 24 0 27 0
506 -0.14927346702083716 -0.1829261621632577 2.76742703603043 255 255 255 1.0 24 0 27 0
507 -0.08238853006444709 0.07247918892265566 2.6799450342426034 255 255 255 1.0 24 0 27 0
508 -0.0712901766307059 -0.10156938796031596 2.733803982316427 255 255 255 1.0 24 0 27 0
509 -0.013658145359921964 -0.005898464668405646 2.6789302527174454 255 255 255 1.0 24 0 27 0
510 -0.010075470365232776 -0.0445156235167357 2.69529139844482 255 255 255 1.0 24 0 27 0
511 0.0048947304233940645 -0.026818460460120916 2.6947994603695773 255 255 255 1.0 24 0 27 0
512 0.036474204618762905 0.008784400442544133 2.682628264939463 255 255 255 1.0 24 0 27 0
513 0.06632629950637202 -0.031612642093853005 2.7049775135385365 255 255 255 1.0 24 0 27 0
514 0.08370385582810788 0.11819328401821315 2.70174559336057 255 255 255 1.0 24 0 27 0
515 0.08294800303414918 0.053958057402763146 2.6999164377357445 255 255 255 1.0 24 0 27 0
516 0.08115103603866669 -0.038254329107809494 2.7117130035560244 255 255 255 1.0 24 0 27 0
517 -0.41094931353705566 -0.6041903783849603 2.830497270939944 255 255 255 1.0 26 0 27 0
518 -0.35669816734043563 -0.24692462413269956 2.8303069217215366 255 255 255 1.0 26 0 27 0
519 -0.3445825932927082 -0.37695874988449335 2.8686280936956154 255 255 255 1.0 26 0 27 0
520 -0.32089971101980286 -0.3064999694298137 2.848402300748241 255 255 255 1.0 26 0 27 0
521 -0.32089971101980286 -0.3064999694298137 2.848402300748241 255 255 255 1.0 26 0 27 0
522 -0.2964685249386022 -0.33288219395994745 2.8853875612924353 255 255 255 1.0 26 0 27 0
523 -0.30631389536027576 -0.38641644237672906 2.914028777710278 255 255 255 1.0 26 0 27 0
524 -0.2912451490594299 -0.32841824401069225 2.899692158261947 255 255 255 1.0 26 0 27 0
525 -0.3458937911674243 -0.611231348228038 2.964838217440052 255 255 255 1.0 26 0 27 0
526 -0.14869320793968738 0.12375749018361883 2.7476638079088813 255 255 255 1.0 26 0 27 0
527 -0.14193279511326062 0.14834205802585798 2.7402528964390567 255 255 255 1.0 26 0 27 0
528 -0.18831747025665405 -0.06715804298929041 2.848136772809082 255 255 255 1.0 26 0 27 0
529 -0.16946704576596228 -0.019629330551988892 2.8218949134730504 255 255 255 1.0 26 0 27 0
530 -0.16955636130018195 -0.019576623045850824 2.8221243150095803 255 255 255 1.0 26 0 27 0
531 -0.20749520589489148 -0.16141323790881007 2.8972104684021662 255 255 255 1.0 26 0 27 0
532 -0.27605557894948646 -0.5540552252376848 2.9870530383968585 255 255 255 1.0 26 0 27 0
533 -0.24209280511412312 -0.3180845055203946 2.9748001855034722 255 255 255 1.0 26 0 27 0
534 -0.20484910693888378 -0.20394564452095257 2.922026753356617 255 255 255 1.0 26 0 27 0
535 -0.09757007732371481 0.06483459407967077 2.7710024226202665 255 255 255 1.0 26 0 27 0
536 -0.09757007732371481 0.06483459407967077 2.7710024226202665 255 255 255 1.0 26 0 27 0
537 -0.25175794288195447 -0.6137972104948285 3.012222494619964 255 255 255 1.0 26 0 27 0
538 -0.1815794960103625 -0.21446032472447693 2.9579494776316757 255 255 255 1.0 26 0 27 0
539 -0.11826507910353858 -0.05537971054597573 2.8454904868820017 255 255 255 1.0 26 0 27 0
540 -0.026242056475201107 0.13542345016911644 2.7586198950709053 255 255 255 1.0 26 0 27 0
541 -0.026242056475201107 0.13542345016911644 2.7586198950709053 255 255 255 1.0 26 0 27 0
542 -0.02626605362206083 0.09977747039031626 2.7750347486983515 255 255 255 1.0 26 0 27 0
543 -0.012912453610652023 0.10126064745025183 2.7840480858563543 255 255 255 1.0 26 0 27 0
544 0.009024600678176333 0.10611471133642722 2.802743733833749 255 255 255 1.0 26 0 27 0
545 0.009024600678176333 0.10611471133642722 2.802743733833749 255 255 255 1.0 26 0 27 0
546 0.039625740732835375 0.03851921103811905 2.8751666860164122 255 255 255 1.0 26 0 27 0
547 0.0646647220953032 0.04351204336205307 2.895000686703763 255 255 255 1.0 26 0 27 0
548 0.07925729436245625 -0.03014500765011263 2.951957806275485 255 255 255 1.0 26 0 27 0
549 0.07925729436245625 -0.03014500765011263 2.951957806275485 255 255 255 1.0 26 0 27 0
550 0.06260557513203333 -0.09545877024839822 2.999659894618537 255 255 255 1.0 26 0 27 0
551 0.10280832334735786 0.03860463256187443 2.955443900111218 255 255 255 1.0 26 0 27 0
552 0.07356635960065745 -0.10547222538161301 3.0410300007813684 255 255 255 1.0 26 0 27 0
553 0.07861236112244588 -0.10239776453588197 3.0532313750332123 255 255 255 1.0 26 0 27 0
554 0.09074233437329712 -0.08317414056246217 3.0475050054829396 255 255 255 1.0 26 0 27 0
555 -0.27757528196265213 -0.2961651578382861 2.6521202169982723 255 255 255 1.0 23 0 25 0
556 -0.23571188968877904 -0.14169004968023186 2.636888296245845 255 255 255 1.0 23 0 25 0
557 -0.21584788940548752 -0.19074923376493985 2.646599889850579 255 255 255 1.0 23 0 25 0
558 -0.09066264374481248 0.04301461211056045 2.5934588260116955 255 255 255 1.0 23 0 25 0
559 -0.2505948879869432 -0.1225470789955373 2.7467409686456414 255 255 255 1.0 23 0 8 0
560 -0.23908803565190123 -0.09159951952868779 2.7312666584872227 255 255 255 1.0 23 0 8 0
561 -0.2091455330814092 -0.15980833283104806 2.7475382507486565 255 255 255 1.0 23 0 8 0
562 -0.12430649799979718 -0.04754340234067408 2.728786659698714 255 255 255 1.0 23 0 8 0
563 -0.08619850033585598 -0.02306389015243533 2.7027072651817194 255 255 255 1.0 23 0 8 0
564 -0.08635896779882159 -0.06433660409504564 2.7167363115114846 255 255 255 1.0 23 0 8 0
565 -0.28402251955012353 -0.3309599464095145 2.732917117793162 255 255 255 1.0 23 0 27 0
566 -0.14267833848066613 -0.09574175170910001 2.7439643576967403 255 255 255 1.0 23 0 27 0
567 -0.06263645428979388 -0.009862784287256508 2.6954567924262514 255 255 255 1.0 23 0 27 0
568 -0.05925866859843101 -0.048895528656789373 2.7054705820818654 255 255 255 1.0 23 0 27 0
569 -0.030873151087335123 0.03799401847212942 2.661478611048195 255 255 255 1.0 23 0 27 0
570 -0.02231727971085013 -0.007478476094191014 2.6914911127453762 255 255 255 1.0 23 0 27 0
571 -0.020017799801993 0.03389757061065653 2.665385880967255 255 255 255 1.0 23 0 27 0
572 -0.002381075695866748 -0.07123071415292447 2.7097006613636863 255 255 255 1.0 23 0 27 0
573 0.0038673857553301974 -0.11933702324463316 2.725713199522975 255 255 255 1.0 23 0 27 0
574 0.025156539034619764 -0.10110230314107242 2.7241919300091793 255 255 255 1.0 23 0 27 0
575 0.02854644795517495 -0.08329991817400322 2.7203381135587805 255 255 255 1.0 23 0 27 0
576 0.04211796765094917 -0.07541137333273755 2.7238524785282547 255 255 255 1.0 23 0 27 0
577 -0.3587419913080705 -0.3477121323994801 2.673926368758822 255 255 255 1.0 23 0 24 0
578 -0.31248749017929256 -0.3372484038068791 2.6360776867088695 255 255 255 1.0 23 0 24 0
579 -0.31248749017929256 -0.3372484038068791 2.6360776867088695 255 255 255 1.0 23 0 24 0
580 -0.30484168200211625 -0.34096829469318957 2.6398295436033394 255 255 255 1.0 23 0 24 0
581 -0.3006891170457833 -0.3806973227367642 2.70518769680696 255 255 255 1.0 23 0 24 0
582 -0.28440007742871654 -0.5527906933354796 2.7170638802027938 255 255 255 1.0 23 0 24 0
583 -0.2790665784349372 -0.5139478315798078 2.7104859125538816 255 255 255 1.0 23 0 24 0
584 -0.3002869450724517 -0.10263281161617922 2.693795517528429 255 255 255 1.0 23 0 24 0
585 -0.2915892135161497 -0.11011054348926481 2.6983805913362104 255 255 255 1.0 23 0 24 0
586 -0.2915892135161497 -0.11011054348926481 2.6983805913362104 255 255 255 1.0 23 0 24 0
587 -0.2713116511215065 -0.3766605735338234 2.7072342799951516 255 255 255 1.0 23 0 24 0
588 -0.265611031717777 -0.475604628695641 2.7110358723883654 255 255 255 1.0 23 0 24 0
589 -0.2711203021523387 -0.1392169161182424 2.6914246569006717 255 255 255 1.0 23 0 24 0
590 -0.2558188670766499 -0.41847092295454075 2.732027712406828 255 255 255 1.0 23 0 24 0
591 -0.24317267816935537 -0.4684758140770668 2.8568395756246177 255 255 255 1.0 23 0 24 0
592 -0.24657851799219183 -0.39956330416629976 2.770469512686369 255 255 255 1.0 23 0 24 0
593 -0.22327291226989293 -0.5390556326402145 2.914784690737609 255 255 255 1.0 23 0 24 0
594 -0.21186424704046805 -0.5652744110883635 2.9248991062595593 255 255 255 1.0 23 0 24 0
595 -0.21016488778122341 -0.5421953146296065 2.9307107780475383 255 255 255 1.0 23 0 24 0
596 -0.2418258009636201 -0.06529392041977773 2.645131637864602 255 255 255 1.0 23 0 24 0
597 -0.22865288690213267 -0.19664422859975217 2.723345587702078 255 255 255 1.0 23 0 24 0
598 -0.19166586966670313 -0.5875568746983615 2.947945535226483 255 255 255 1.0 23 0 24 0
599 -0.22578248511656243 0.2144943356479902 2.798132006421143 255 255 255 1.0 23 0 24 0
600 -0.21931802906345554 -0.15386049281761338 2.682894853054469 255 255 255 1.0 23 0 24 0
601 -0.18580678513348597 -0.5331938043747309 2.980423467800955 255 255 255 1.0 23 0 24 0
602 -0.18535752547892057 -0.4977875498807744 3.008310556818962 255 255 255 1.0 23 0 24 0
603 -0.1785782098369711 -0.6101178922934627 2.98591308928115 255 255 255 1.0 23 0 24 0
604 -0.17781954105315181 -0.6194325567402448 2.937818615357767 255 255 255 1.0 23 0 24 0
605 -0.2091616740588383 -0.13011485939050993 2.6681788835573435 255 255 255 1.0 23 0 24 0
606 -0.2091616740588383 -0.13011485939050993 2.6681788835573435 255 255 255 1.0 23 0 24 0
607 -0.21410530539958483 0.22430389156599312 2.6693073509638343 255 255 255 1.0 23 0 24 0
608 -0.20961202043918123 0.22699369320088789 2.625242967139268 255 255 255 1.0 23 0 24 0
609 -0.18359446673123717 -0.20501751720304306 2.799492672842987 255 255 255 1.0 23 0 24 0
610 -0.16236624939855537 0.036986956795864695 2.652839551195863 255 255 255 1.0 23 0 24 0
611 -0.15962348513711072 0.020939733731969595 2.6658610997312673 255 255 255 1.0 23 0 24 0
612 -0.14086270771977547 -0.1174044815794721 2.745561139720271 255 255 255 1.0 23 0 24 0
613 -0.14547392546831925 0.012612461023704656 2.651810586101021 255 255 255 1.0 23 0 24 0
614 -0.1334975998311888 0.009718166754534479 2.637207868573669 255 255 255 1.0 23 0 24 0
615 -0.12202695830714312 -0.01857632171226096 2.6937309068070987 255 255 255 1.0 23 0 24 0
616 -0.11737215877935492 -0.041732462781438766 2.689070997989736 255 255 255 1.0 23 0 24 0
617 -0.12685264681498276 0.02627561611146293 2.6013614453243634 255 255 255 1.0 23 0 24 0
618 -0.10596450436842324 -0.08012099909426297 2.7397258676436724 255 255 255 1.0 23 0 24 0
619 -0.10115833368831874 -0.0051568219177598245 2.632832265317533 255 255 255 1.0 23 0 24 0
620 -0.0836560084652178 -0.09058929486132508 2.7610115911556914 255 255 255 1.0 23 0 24 0
621 -0.0836560084652178 -0.09058929486132508 2.7610115911556914 255 255 255 1.0 23 0 24 0
622 -0.10071661855396483 0.032739090685048544 2.5891206718105435 255 255 255 1.0 23 0 24 0
623 -0.10071661855396483 0.032739090685048544 2.5891206718105435 255 255 255 1.0 23 0 24 0
624 -0.09610698523267132 0.01962513352954598 2.5898776595154986 255 255 255 1.0 23 0 24 0
625 -0.07418169678318137 0.014776805182850673 2.5938600698955017 255 255 255 1.0 23 0 24 0
626 -0.06865116114589649 0.043644930701694284 2.58600523726145 255 255 255 1.0 23 0 24 0
627 -0.05948184084877556 0.012732159115717801 2.616265229883907 255 255 255 1.0 23 0 24 0
628 -0.04174567077937017 -0.0709923929710139 2.757355504049016 255 255 255 1.0 23 0 24 0
629 -0.04174567077937017 -0.0709923929710139 2.757355504049016 255 255 255 1.0 23 0 24 0
630 -0.051040982162590426 -0.024436878876495458 2.682071271453302 255 255 255 1.0 23 0 24 0
631 -0.051040982162590426 -0.024436878876495458 2.682071271453302 255 255 255 1.0 23 0 24 0
632 -0.02736120500733526 -0.09967682104146247 2.820741505614025 255 255 255 1.0 23 0 24 0
633 -0.03571508304009348 -0.042200263743512816 2.718342338785842 255 255 255 1.0 23 0 24 0
634 -0.004296990733339 -0.09335937224498482 2.8485982318632077 255 255 255 1.0 23 0 24 0
635 -0.016069908601450578 -0.05670201462939772 2.7481933337443833 255 255 255 1.0 23 0 24 0
636 -0.019221298794052252 -0.03280352393286849 2.724008455622894 255 255 255 1.0 23 0 24 0
637 0.0033803150941231056 -0.10634903798375081 2.878159385577915 255 255 255 1.0 23 0 24 0
638 -0.008437764367151043 -0.04782140817619583 2.7360336014181548 255 255 255 1.0 23 0 24 0
639 -0.02310902654550387 0.027296657952368863 2.6226431026860504 255 255 255 1.0 23 0 24 0
640 -0.008418513174712098 -0.02370492337169768 2.7212163769460926 255 255 255 1.0 23 0 24 0
641 -0.008418513174712098 -0.02370492337169768 2.7212163769460926 255 255 255 1.0 23 0 24 0
642 0.02719878980750084 -0.09063821675680245 2.8999586730156115 255 255 255 1.0 23 0 24 0
643 0.02211066527081595 -0.06312270561997112 2.811418061294015 255 255 255 1.0 23 0 24 0
644 0.001459509601627835 0.02571549448801346 2.6587798957983377 255 255 255 1.0 23 0 24 0
645 0.04334237921951043 -0.0891390027279649 2.8869919213350674 255 255 255 1.0 23 0 24 0
646 0.029861045719416973 -0.0008267474774898903 2.744102770416333 255 255 255 1.0 23 0 24 0
647 0.060273031682098535 -0.05338411570691939 2.889848431216005 255 255 255 1.0 23 0 24 0
648 0.06728860038759135 0.05370110063073848 2.788372858008335 255 255 255 1.0 23 0 24 0
649 -0.36198915824033506 -0.3512235890119844 2.909330141098128 255 255 255 1.0 23 0 7 0
650 -0.34844299253553773 -0.37662216985424396 2.9795878481280487 255 255 255 1.0 23 0 7 0
651 -0.3303203915442298 -0.3264773749561273 2.880542830667255 255 255 255 1.0 23 0 7 0
652 -0.28192247711712004 -0.13469401199509926 2.6869029571364003 255 255 255 1.0 23 0 7 0
653 -0.28192247711712004 -0.13469401199509926 2.6869029571364003 255 255 255 1.0 23 0 7 0
654 -0.2733501029699274 -0.16138712478557826 2.742021784939918 255 255 255 1.0 23 0 7 0
655 -0.2601873268666866 -0.13960512256838642 2.7079041099150936 255 255 255 1.0 23 0 7 0
656 -0.2626950705600432 -0.11424013639506005 2.6706638052758014 255 255 255 1.0 23 0 7 0
657 -0.23738671932600044 -0.14553440550068067 2.737924033020277 255 255 255 1.0 23 0 7 0
658 -0.22245390504653118 -0.16061829545850087 2.780388832529662 255 255 255 1.0 23 0 7 0
659 -0.21188698703062178 -0.10467318750856322 2.6860523461364707 255 255 255 1.0 23 0 7 0
660 -0.1996662626597062 -0.13894765257544997 2.7685314739996447 255 255 255 1.0 23 0 7 0
661 -0.19877084092351008 -0.13239819455390173 2.739987131585483 255 255 255 1.0 23 0 7 0
662 -0.19059524273942674 -0.17217036338221228 2.838071041506595 255 255 255 1.0 23 0 7 0
663 -0.19128211436263778 -0.10250332233232998 2.703664638207315 255 255 255 1.0 23 0 7 0
664 -0.1879090393609281 -0.11110188915271349 2.7184472161350315 255 255 255 1.0 23 0 7 0
665 -0.1879090393609281 -0.11110188915271349 2.7184472161350315 255 255 255 1.0 23 0 7 0
666 -0.18167476744774227 -0.12391980574904338 2.7511126810119344 255 255 255 1.0 23 0 7 0
667 -0.17138321213685118 -0.1737292620922706 2.8833721797171905 255 255 255 1.0 23 0 7 0
668 -0.16114619190223578 -0.14127784737695892 2.795158135648533 255 255 255 1.0 23 0 7 0
669 -0.1684892558763088 -0.07858409389290816 2.6804727352635473 255 255 255 1.0 23 0 7 0
670 -0.1389048579642706 -0.12020810809811043 2.794291155928886 255 255 255 1.0 23 0 7 0
671 -0.1389048579642706 -0.12020810809811043 2.794291155928886 255 255 255 1.0 23 0 7 0
672 -0.14020760436814725 -0.06664311120664734 2.6683592377747756 255 255 255 1.0 23 0 7 0
673 -0.1319351344462231 -0.09056984456571977 2.7223924201864316 255 255 255 1.0 23 0 7 0
674 -0.12837449797887415 -0.036702957869480746 2.628861600787962 255 255 255 1.0 23 0 7 0
675 -0.12210659057433115 -0.0659486946015786 2.6978648545931923 255 255 255 1.0 23 0 7 0
676 -0.13526089874969024 0.003051639775480096 2.5409184895112333 255 255 255 1.0 23 0 7 0
677 -0.12850978255194986 -0.02740749023794041 2.6070729709102984 255 255 255 1.0 23 0 7 0
678 -0.11587379463828822 -0.07203154701235345 2.7006801285692523 255 255 255 1.0 23 0 7 0
679 -0.11612985665902172 -0.05786205405058273 2.6735881476010617 255 255 255 1.0 23 0 7 0
680 -0.11224201438585818 -0.07384656133640649 2.7294913316021683 255 255 255 1.0 23 0 7 0
681 -0.10757204959271224 -0.010943527520668624 2.5919111926975336 255 255 255 1.0 23 0 7 0
682 -0.08819624059198825 -0.0865245062099096 2.751140420993374 255 255 255 1.0 23 0 7 0
683 -0.09540235442841707 -0.034468466833525224 2.6342681679389712 255 255 255 1.0 23 0 7 0
684 -0.08574309723479857 -0.07566840049203728 2.7320833140443432 255 255 255 1.0 23 0 7 0
685 -0.0859097937366017 -0.05770678201168569 2.678096095249147 255 255 255 1.0 23 0 7 0
686 -0.08363141689458532 -0.0032298808297456373 2.5769989020861055 255 255 255 1.0 23 0 7 0
687 -0.07090189089240699 -0.054839979163817894 2.6894976745989125 255 255 255 1.0 23 0 7 0
688 -0.0720270623197029 -0.025830081184862172 2.6185167080329466 255 255 255 1.0 23 0 7 0
689 -0.07506300071348551 0.007321747803490786 2.5491061726877673 255 255 255 1.0 23 0 7 0
690 -0.04180454530512665 -0.08215655778999419 2.7805764672050017 255 255 255 1.0 23 0 7 0
691 -0.038381253008002506 -0.09120178900728045 2.793692052227385 255 255 255 1.0 23 0 7 0
692 -0.03633978921485461 -0.09834853747375549 2.818101366655479 255 255 255 1.0 23 0 7 0
693 -0.05292186429517849 0.0058159905204786 2.5632858703593966 255 255 255 1.0 23 0 7 0
694 -0.037448573284967895 -0.04589737788984634 2.6782688143089772 255 255 255 1.0 23 0 7 0
695 -0.037448573284967895 -0.04589737788984634 2.6782688143089772 255 255 255 1.0 23 0 7 0
696 -0.037005428564684216 -0.03673482617573388 2.664477908417051 255 255 255 1.0 23 0 7 0
697 -0.019719193278039622 -0.08204750977571558 2.787048964735894 255 255 255 1.0 23 0 7 0
698 -0.022224942032573525 -0.07234179437693387 2.7578480205685225 255 255 255 1.0 23 0 7 0
699 0.000282053004700709 -0.10636241405746985 2.8655262111158 255 255 255 1.0 23 0 7 0
700 -0.01944519679595591 -0.013216451988741518 2.607581667339201 255 255 255 1.0 23 0 7 0
701 -0.01045456935729378 -0.044361404470978645 2.7031926102401718 255 255 255 1.0 23 0 7 0
702 -0.016015122370451378 -0.024268455743199274 2.6434866294775468 255 255 255 1.0 23 0 7 0
703 0.0077270023134524595 -0.10371889089299621 2.8212021703291184 255 255 255 1.0 23 0 7 0
704 0.0024261619998456985 -0.03049237198533106 2.6956853478097713 255 255 255 1.0 23 0 7 0
705 0.009348768521119172 -0.017427073445585996 2.631892198462011 255 255 255 1.0 23 0 7 0
706 0.006202441002983988 0.004334264546789107 2.589427600408699 255 255 255 1.0 23 0 7 0
707 -0.14595053244299636 -0.03729827361546695 3.0125731705065424 255 255 255 1.0 26 0 7 0
708 -0.2300073256250207 -0.1636340011909901 2.6330161084932033 255 255 255 1.0 25 0 7 0
709 -0.29342475149763886 -0.08512663167493308 2.8424037406839315 255 255 255 1.0 7 0 8 0
710 -0.2689118106573528 -0.1615155039037983 2.811281367151321 255 255 255 1.0 7 0 8 0
711 -0.22435876813789918 -0.15194421160154822 2.788339649602439 255 255 255 1.0 7 0 8 0
712 -0.22435876813789918 -0.15194421160154822 2.788339649602439 255 255 255 1.0 7 0 8 0
713 -0.23517809461148953 -0.09196833350123888 2.800063378556392 255 255 255 1.0 7 0 8 0
714 -0.20195127742866845 -0.03186642985539202 2.7853122631846206 255 255 255 1.0 7 0 8 0
715 -0.12987455112309432 -0.24704924481285384 2.7499269912667867 255 255 255 1.0 7 0 8 0
716 -0.1633201855570998 0.10332461393208947 2.7556427153655205 255 255 255 1.0 7 0 8 0
717 0.041817553512694124 -0.20652086647253898 2.669799476303452 255 255 255 1.0 7 0 8 0
718 0.03779012166761064 -0.16731217659196349 2.6737082528252722 255 255 255 1.0 7 0 8 0
719 0.07172074732382537 -0.15132760877737722 2.650514617869722 255 255 255 1.0 7 0 8 0
720 -0.3332598721290398 -0.2433807841476587 3.1790232180651254 255 255 255 1.0 24 0 7 0
721 -0.3116238889395509 -0.22803101302020048 3.1860306677530126 255 255 255 1.0 24 0 7 0
722 -0.3035039268692782 -0.2120234337134521 3.2114251243747227 255 255 255 1.0 24 0 7 0
723 -0.26917797903354695 -0.09533487441653389 2.683020098719386 255 255 255 1.0 24 0 7 0
724 -0.26917797903354695 -0.09533487441653389 2.683020098719386 255 255 255 1.0 24 0 7 0
725 -0.2540203829616851 -0.08737123349074005 2.7075624192436805 255 255 255 1.0 24 0 7 0
726 -0.24582733172751664 -0.1950121373322855 3.1315512651866424 255 255 255 1.0 24 0 7 0
727 -0.18970211683410337 -0.16760541688033395 2.871315739180829 255 255 255 1.0 24 0 7 0
728 -0.18672534882743608 -0.1000266475938403 2.834487992971742 255 255 255 1.0 24 0 7 0
729 -0.13677127853834503 -0.019226179324759958 2.506669364991681 255 255 255 1.0 24 0 7 0
730 -0.12050055351086891 -0.07116024176205137 2.6566650709597477 255 255 255 1.0 24 0 7 0
731 -0.06258772719652805 -0.06926693133738213 2.719314243426374 255 255 255 1.0 24 0 7 0
732 -0.054212814919445684 -0.0486672302608172 2.6719063718861356 255 255 255 1.0 24 0 7 0
